0.1001617335902944,0.09084261699563889,0.08427074810361229,0.08289480020409495,0.1009171610566531,0.1297826250360128,0.1582065606519979,0.20440163010876125,0.21621620703809674,0.2625876647714869,0.4152863095897256,0.46464580491519447,0.4398583546417695,0.3756802039523165,0.2765036878117678,0.23248084823087095,0.22136570122024948,0.23104722673932654,0.25458741990729894,0.2778299097423264,0.28421398219419125,0.2831474839626017,0.30756887721771947,0.2993268624542195,0.27448993494560203,0.2733806131481008,0.2949982709349715,0.3123815652863571,0.3075291492296804,0.29896345323983287,0.3074880931184614,0.2969825396395389,0.2431524061380016,0.2108287159026605,0.21931861402495997,0.22669628594413316,0.21405432250061804,0.2134210129458012,0.22890028413541472,0.23916522600337925,0.23868987131474126,0.23868987131474126,0.23868987131474126,0.23868987131474126,0.23868987131474126,0.23868987131474126,0.23868987131474126,0.23868987131474126,0.23868987131474126,0.23868987131474126,0.23868987131474126,0.23868987131474126,0.23868987131474126,0.23868987131474126,0.23868987131474126,0.23868987131474126,0.23868987131474126,0.23868987131474126,0.23868987131474126,0.23868987131474126,0.23307803786042483,0.22390603475480947,0.22539454213402862,0.2372445546100353,0.25402440795979664,0.2532439890155753,0.2452410581359824,0.22621817019080726,0.19155622672533598,0.18312681939696873,0.20373908410092798,0.2207268984781572,0.20467930882076718,0.1714500847443777,0.18072125802903297,0.2746365764423222,0.4333238090776397,0.53205013422265,0.565101058894061,0.5777722521261591,0.5804394438830573,0.6058744136870091,0.7023893000795287,0.7546843584132783,0.7579036517182012,0.7558419510071415,0.7333504878908982,0.611278725209274,0.2507774954305954,0.09707703587691574,0.05858276453713207,0.02507037821311786,0.11019730085101204,0.2549559627087304,0.2802619993944009,0.25715907586972947,0.2437451989335248,0.25891836235700705,0.323880672728435,0.4277495275451967
0.1642066509014421,0.12059264173820644,0.1057900873655539,0.10725075903430958,0.13094272800839007,0.18402078850475956,0.24417379638257738,0.36298870704411246,0.40587940776160564,0.42324392655127,0.4673166297578048,0.48066693641072494,0.47018327307682695,0.4463007574543689,0.40306170641715083,0.34707351882201937,0.31978234579322196,0.3269019161651704,0.3506222892817238,0.3737284994447935,0.379222154193694,0.36841474388781476,0.36096344786214435,0.3246301952334054,0.28925959049943784,0.2778404731422134,0.29536602773614035,0.3086116564850768,0.2936292770520827,0.2802892905940888,0.29528737360598517,0.2963416660599377,0.24773495152582553,0.22180599265916418,0.2367280477316674,0.2478872227430012,0.23170278541702624,0.22459083896341886,0.235204904793629,0.24126741292815532,0.23868987131474126,0.23868987131474126,0.23868987131474126,0.23868987131474126,0.23868987131474126,0.23868987131474126,0.23868987131474126,0.23868987131474126,0.23868987131474126,0.23868987131474126,0.23868987131474126,0.23868987131474126,0.23868987131474126,0.23868987131474126,0.23868987131474126,0.23868987131474126,0.23868987131474126,0.23868987131474126,0.23868987131474126,0.23868987131474126,0.23246846217878928,0.2232324240501408,0.22581161271185443,0.23648109918877577,0.23799076322904605,0.2213455429664753,0.2143605104080341,0.20419154971753578,0.1824955543867252,0.18195193022405126,0.2037592690802119,0.2243626388145131,0.22100767732877794,0.20281514132450582,0.2625164283473771,0.45173589086236027,0.5483588320010063,0.5745063475622626,0.5984561705892069,0.6199926810913998,0.6217581213135904,0.61524567983891,0.6661903210459514,0.7588996985080732,0.7805238969269899,0.7896980409758307,0.8039905858933765,0.661600736117607,0.20657391558153756,0.018214917618168902,0.0,0.010123953855702639,0.08815587889478532,0.245475001484593,0.2814338122566929,0.2619576119271818,0.2696884969391054,0.35006932141223684,0.4726678470460838,0.5418512040168518
0.3897287817908376,0.2715627489012945,0.22401155633488304,0.20948721782220078,0.2359362829682067,0.342364851968679,0.3968269589464027,0.4406231665928941,0.45518437767151154,0.4562709693006042,0.45825726986214677,0.46258425826951394,0.47481303267290365,0.4844117953348603,0.4669578601442067,0.40595247152485875,0.36506898433589496,0.3622772581283681,0.38328683433725314,0.4029722659188899,0.3983409224367355,0.3759767811705463,0.3649328213069764,0.34754384534339,0.32182430117026994,0.2965953310478637,0.2984836948420641,0.30707192315469545,0.2919030267685386,0.2800707928540082,0.2964042463069853,0.3068301064203269,0.2828210578908682,0.2656392414138992,0.2811507631363387,0.29068165382940325,0.2670971680790192,0.24279434609866593,0.24319889182432772,0.2430119374864985,0.23868987131474126,0.23868987131474126,0.23868987131474126,0.23868987131474126,0.23868987131474126,0.23868987131474126,0.23868987131474126,0.23868987131474126,0.23868987131474126,0.23868987131474126,0.23868987131474126,0.23868987131474126,0.23868987131474126,0.23868987131474126,0.23868987131474126,0.23868987131474126,0.23868987131474126,0.23868987131474126,0.23868987131474126,0.23868987131474126,0.23153775935938162,0.21790510198449886,0.21569565044468944,0.22147380538155387,0.2181270484624609,0.20001506917117726,0.19402562044500002,0.18774311207173952,0.17682835869430194,0.1854926209890712,0.2089002797373999,0.2317861182880926,0.23915082410988905,0.24779357370153998,0.35547919870341915,0.5454872798906182,0.5971449147344505,0.6042493584485898,0.6259420336233573,0.6462870644904262,0.6456733911284812,0.6295079170411751,0.6571853136237137,0.7477617302332478,0.783856720750173,0.7932433247811824,0.8091312982226433,0.7011542610310848,0.31230660010718403,0.07189535874497377,0.02461765033877822,0.03236386651410522,0.10110639152194678,0.26279853898587135,0.3297055536652274,0.3260308696887225,0.3645667632653181,0.4912882371160357,0.5662534181183242,0.577923608455084
0.5312301344946176,0.5177541619860205,0.5060567564753654,0.4718713725791094,0.44076302571887427,0.4436351218112932,0.44360462799435124,0.43753850844360254,0.43039407555157233,0.4285999741932508,0.4290361216196664,0.44008721329455525,0.47459448582605707,0.4970533609808045,0.47160082906609735,0.4099550305163551,0.3646839664500408,0.35428756562952496,0.3681243631389872,0.37770946232377156,0.3624857002975201,0.34086963687924854,0.3401910213904169,0.3433215142512895,0.33843174437003987,0.32485178246072327,0.30728586993689766,0.3018362648705092,0.28926487751018504,0.303142467746746,0.3301580234239396,0.358018502663082,0.38015597570715576,0.37564688812117486,0.39053556334888045,0.3960724258945428,0.35239766304760606,0.28105690632401104,0.25063206159156537,0.24295201256964238,0.23868987131474126,0.23868987131474126,0.23868987131474126,0.23868987131474126,0.23868987131474126,0.23868987131474126,0.23868987131474126,0.23868987131474126,0.23868987131474126,0.23868987131474126,0.23868987131474126,0.23868987131474126,0.23868987131474126,0.23868987131474126,0.23868987131474126,0.23868987131474126,0.23868987131474126,0.23868987131474126,0.23868987131474126,0.23868987131474126,0.23331523864159573,0.22493355293358464,0.2369144744046049,0.25075932215166374,0.25733793974557995,0.26070801205597677,0.26651206947527684,0.27032985128126896,0.2700014773722724,0.2779392514344291,0.29425855613909524,0.31018808884607074,0.3194761429219326,0.37047369164428884,0.5334824107054105,0.6371993785468072,0.6512510720497227,0.6483440014730474,0.6552764672669027,0.6571301291105719,0.6376532365040265,0.6180917068955,0.6294210531547212,0.6842379127993351,0.7641493886792113,0.7934286157755974,0.8135448889301828,0.7990952567799069,0.589969531340764,0.19354866931495004,0.05905069460046969,0.0600731663326452,0.13352004837842008,0.343589085202669,0.4855271486092358,0.5108149357520789,0.5325433843922339,0.5819029613802069,0.5946417645808714,0.5854182883324237
0.5524356750842745,0.5824882389430063,0.6041139657305992,0.597834183692512,0.5496221345213407,0.4902992356204606,0.4582079704454424,0.4382614189464732,0.42630676044796645,0.42900822958591245,0.4317824780524868,0.4450399979548191,0.4809536278395916,0.48634278402935077,0.4308923468264425,0.38203382094710847,0.3547805220157781,0.35206297628117733,0.3590548905382117,0.3562517287979087,0.3374148755750759,0.3297345418554761,0.34364401898406416,0.35983739328078096,0.3627579976771574,0.35239185184697464,0.3431433102572051,0.33274817621300085,0.32426595241244605,0.37875483168327845,0.42113815645286845,0.4389913794405973,0.4310844651053811,0.41368474131925526,0.42734464993751453,0.43959971541992016,0.408064297492457,0.33309611168215714,0.26376682771651894,0.24092345419104905,0.23868987131474126,0.23868987131474126,0.23868987131474126,0.23868987131474126,0.23868987131474126,0.23868987131474126,0.23868987131474126,0.23868987131474126,0.23868987131474126,0.23868987131474126,0.23868987131474126,0.23868987131474126,0.23868987131474126,0.23868987131474126,0.23868987131474126,0.23868987131474126,0.23868987131474126,0.23868987131474126,0.23868987131474126,0.23868987131474126,0.24140416697963776,0.2641212001336825,0.32898565040047023,0.37905411180125426,0.4172830257399184,0.45582954005230325,0.47892717138756175,0.49513322130669013,0.49841794387329474,0.49242751316059485,0.4943373145245399,0.49525001038832595,0.49070068769372854,0.5236577310666313,0.6197666886892168,0.6714005476471562,0.6831656774558741,0.6681840076016018,0.6515045196067343,0.6278159024963341,0.5925832541182037,0.5833923547515281,0.6010063736385033,0.6443991725857727,0.732977838838593,0.7856901214766564,0.814729278561507,0.8328209597092961,0.6830037480559494,0.2251386919588683,0.059035277071635195,0.08000844087922343,0.2245809653487691,0.4697700211044386,0.5747274472952728,0.5900758089758841,0.5995065447568799,0.5993820266111198,0.58395759463134,0.5702409498669323
0.5305628415268199,0.5525485297977561,0.5818961970852443,0.6055821258415978,0.5959411639227853,0.5310271299527578,0.47751408471875006,0.4498309238017434,0.4439120826811444,0.45703228174790284,0.46295646779316946,0.47289095385681534,0.4937659751464825,0.47649468563338404,0.4050161805813604,0.36340636404446963,0.3560907203871039,0.368863432113458,0.37494466629123296,0.36660134818648904,0.349494791294094,0.35269835021590795,0.37509335870362354,0.39683944985879677,0.39838519445470155,0.3814722657416124,0.37766914359066844,0.38352473809053167,0.392714585369965,0.42381559091572313,0.45456513643375174,0.46735541550136067,0.4483135819337989,0.43078948997082817,0.44563715897021966,0.4636701554106323,0.4329496314059694,0.3660617744044137,0.28930656574017133,0.24142761475074193,0.23868987131474126,0.23868987131474126,0.23868987131474126,0.23868987131474126,0.23868987131474126,0.23868987131474126,0.23868987131474126,0.23868987131474126,0.23868987131474126,0.23868987131474126,0.23868987131474126,0.23868987131474126,0.23868987131474126,0.23868987131474126,0.23868987131474126,0.23868987131474126,0.23868987131474126,0.23868987131474126,0.23868987131474126,0.23868987131474126,0.25461103334875623,0.3185699908479518,0.39252440949938183,0.4372576002154758,0.4773461585134805,0.5168777817542605,0.547265183335071,0.5690113776977115,0.5705658131892734,0.5536915385778003,0.5471165189201884,0.5390027512857718,0.5232442458566067,0.5392201668561589,0.597702256168118,0.6479807379987195,0.669745528139704,0.6490015207119005,0.6197829689620741,0.5873238208541832,0.5605193863031835,0.5730525214628659,0.6009038999315793,0.6257936217620514,0.671987993027187,0.7623263271907879,0.8132751459571186,0.8308484038249274,0.6727639755829574,0.20291383947779656,0.033708147418186785,0.11776726566650525,0.39007348098256184,0.5464684788614422,0.5760309206940151,0.5848556775284733,0.5979281435103493,0.591477355117441,0.5686252608944646,0.5552393234791341
0.5089256524428395,0.530013651268546,0.5586453809113634,0.5891855052803241,0.606979627865546,0.5646903957253284,0.49026809670699234,0.4545278502626673,0.4590178530732982,0.48247478490690565,0.4903940320052139,0.4960408440099381,0.5007890480878094,0.46538321583118214,0.3978872255960893,0.36389085075076366,0.3686347490253634,0.3917099649179005,0.39947133388614264,0.3910217563459834,0.3756186674187144,0.3803976508626899,0.40251939621066657,0.4236941701278256,0.4253807421677356,0.40925111865762115,0.4136495146995805,0.43637907881108423,0.4317103311429838,0.43317108205298294,0.4544592561076047,0.46920857444170283,0.45999903291891886,0.4527941721502696,0.47021478758180624,0.4948261629067767,0.4545871248321379,0.38515631748726453,0.3110723541895797,0.24937209497070256,0.23822931875067455,0.23868987131474126,0.23868987131474126,0.23868987131474126,0.23868987131474126,0.23868987131474126,0.23868987131474126,0.23868987131474126,0.23868987131474126,0.23868987131474126,0.23868987131474126,0.23868987131474126,0.23868987131474126,0.23868987131474126,0.23868987131474126,0.23868987131474126,0.23868987131474126,0.23868987131474126,0.23868987131474126,0.23982817967550604,0.27035917181198466,0.34985686371936514,0.4156762504369427,0.45100229745974574,0.4809767693774182,0.5009409680274743,0.5288286677805204,0.5502723886874933,0.55119923346317,0.5332767217663545,0.5257548271921892,0.5166990866683525,0.49990396977069607,0.5075688945526153,0.5473610500046443,0.6062167712551136,0.640138287405289,0.6216380220910577,0.5923185948472354,0.5659220546733389,0.5604175629863701,0.5934683652117247,0.6260208680281051,0.6399252949899361,0.652960761409568,0.7330701247100987,0.8041729684325141,0.8278211259220345,0.6914212473698118,0.2732400773927856,0.0650345856366279,0.181290911934614,0.45313021810846726,0.5464237087173651,0.5512149140669825,0.5608089088826711,0.5833960084385458,0.586745293301461,0.5674708961789304,0.5553876295391728
0.5319174053916893,0.5474666565045384,0.5609631961751622,0.5792499320188095,0.5994127640058046,0.5763285012172142,0.5055385672621051,0.4650834415714671,0.48212860345810377,0.5157506317855901,0.5200337043323215,0.5111129177249477,0.4816824371607141,0.41609933507868674,0.3713186567969678,0.35927066862062706,0.38176264754964045,0.4104804503569564,0.41266573693847264,0.4047730359086951,0.40511861469840615,0.4190185072669944,0.4318546836622705,0.44314501599998085,0.4489366113065041,0.44445113072328,0.4544023651571831,0.46830386901553245,0.44170954121432693,0.42553707253566053,0.43770182243404165,0.44977053225866104,0.4523317160854301,0.46160353746509164,0.48372845079993815,0.510642003532141,0.47685567194755374,0.4078540969361887,0.34342454615818924,0.2806100653567325,0.24210113707311418,0.23868987131474126,0.23868987131474126,0.23868987131474126,0.23868987131474126,0.23868987131474126,0.23868987131474126,0.23868987131474126,0.23868987131474126,0.23868987131474126,0.23868987131474126,0.23868987131474126,0.23868987131474126,0.23868987131474126,0.23868987131474126,0.23868987131474126,0.23868987131474126,0.23868987131474126,0.23868987131474126,0.24518479700530738,0.30100835090640243,0.3777523705237218,0.43567050546386676,0.4795720299362285,0.5074526510887045,0.5135995003232917,0.5314760657796821,0.5472647773871383,0.5458623799333533,0.5253945234069786,0.5119398298511466,0.4967437932153856,0.47942975390897163,0.48880073519708933,0.5175594408202805,0.5627376176028893,0.6022576214023296,0.5865986916984873,0.5626551596759195,0.5493595625995404,0.5685469391593895,0.6198950978336306,0.6559716958956205,0.6696839406725461,0.6564080812766694,0.680552748347736,0.7784212601779499,0.8143187036046331,0.7566042566820259,0.5083217187069435,0.19815989744130103,0.34214492249497214,0.49895402078878126,0.526672891792599,0.5209423146162534,0.5229962229148939,0.5478307359957036,0.569647368553374,0.5679570290004095,0.5677393813948346
0.5925139429817161,0.5922622564086876,0.5798026263102559,0.5760849097730765,0.5876677326409468,0.5836306337370316,0.5396718478910978,0.48807551132588184,0.4937262442041171,0.5209724547751636,0.5159928273311654,0.4895216421127807,0.4393207842374706,0.38104227775742133,0.35933962697003485,0.3644266774014639,0.39418047294430864,0.41228290524577704,0.4008470031270942,0.3917764815340003,0.4101609694609603,0.43179537680244057,0.4280843445929909,0.4235130409380185,0.43618306778753924,0.4536882778682189,0.4740120412630837,0.46689153778348885,0.43690600011555003,0.42410233355025856,0.42862306835760394,0.43051716562604514,0.43135691907500834,0.44741380241012185,0.4724227609882316,0.4977977963933906,0.4850731173236771,0.4251078689118576,0.37187504673702926,0.3179826144988407,0.2644391070789224,0.239510605290993,0.23868987131474126,0.23868987131474126,0.23868987131474126,0.23868987131474126,0.23868987131474126,0.23868987131474126,0.23868987131474126,0.23868987131474126,0.23868987131474126,0.23868987131474126,0.23868987131474126,0.23868987131474126,0.23868987131474126,0.23868987131474126,0.23868987131474126,0.23868987131474126,0.23874593798512417,0.248342140850327,0.3165036138828413,0.3942230949541472,0.45911716372844136,0.5239599880395697,0.5512083413848838,0.5476372959861716,0.5508310678253134,0.5596128257760963,0.5617156746635398,0.5440700235614737,0.5227303120145759,0.49767766347011655,0.4797466352589801,0.4966943421584019,0.525410897253108,0.557993497423837,0.5865834483653436,0.5773332900035318,0.5657727118973988,0.5618355530318283,0.5794101955281066,0.6207930120477638,0.65322913839364,0.6745375066050896,0.6688985495513604,0.6670960124801939,0.7447556156095172,0.7864079061010101,0.7703100920326434,0.6223105109173741,0.3235475641997713,0.4393952211551915,0.5378063177679984,0.5399178666934331,0.5221135003711947,0.5060388224006647,0.513956707141398,0.5458956646269841,0.567347844779551,0.5839187203867395
0.6229191425094566,0.606258809829708,0.5781026770078479,0.5640421912384144,0.5755901481352002,0.5831741817895217,0.5429454898008264,0.46273426252145455,0.43244627340778263,0.45091719054005286,0.46975482758410325,0.4449095066625839,0.39189311619401257,0.3751338861955856,0.37511880167701395,0.38451975744067746,0.40599824472735946,0.4069662637471959,0.3855629923591575,0.3734641196975669,0.39303554918861,0.41077002337059876,0.39636392907828893,0.3834960399983681,0.40248639171517586,0.4354250017380834,0.4536435767631973,0.4408129552017261,0.4307970668195421,0.43942115565400297,0.44451250832771866,0.43755267288779826,0.4254264834175071,0.4335975768814048,0.45741155173873516,0.4806105377922019,0.4853084939728477,0.429819701761052,0.3846394822346343,0.3403565799594559,0.2939589945492185,0.2557598408163383,0.23868987131474126,0.23868987131474126,0.23868987131474126,0.23868987131474126,0.23868987131474126,0.23868987131474126,0.23868987131474126,0.23868987131474126,0.23868987131474126,0.23868987131474126,0.23868987131474126,0.23868987131474126,0.23868987131474126,0.23868987131474126,0.23868987131474126,0.23868987131474126,0.24071680708614868,0.2598928373026649,0.3328824957884108,0.41238474097149913,0.48566361733129915,0.5621496693489896,0.5683553936729392,0.5550899746665916,0.5494053247222861,0.5568653586158714,0.5692316297873734,0.561096652003635,0.537468076240955,0.5071783079789752,0.48892368845340517,0.5100355694439946,0.539994681984429,0.5646421429431375,0.5815036584824,0.5936637520336359,0.5967922924256485,0.591285667721446,0.5839055287880011,0.5970080973492431,0.6220558116552801,0.6510385711149655,0.6646041825052793,0.6494299056429478,0.6768050308467071,0.7529535349830803,0.765926902249594,0.686796152778693,0.5274528655492297,0.5394625228048562,0.5778711563499135,0.5744849232366518,0.5498201257734279,0.5203200019424561,0.5071732551571017,0.5328273317426762,0.5633593762301697,0.5862727933565981
0.6091327133426627,0.5829840036878547,0.5525886970057268,0.5410748491193493,0.56073149335635,0.5598094113887037,0.45521964999504744,0.29528338524924247,0.24874338535351656,0.2840853957220921,0.3743031375000008,0.4103720561009949,0.3824570341133814,0.39177008322880164,0.4004903774255836,0.4068662990218104,0.4172144823230186,0.4078363886626248,0.3846264005704323,0.3700030900001332,0.3784907015809974,0.385476676550808,0.3689341063281285,0.35701302551115677,0.3842539390601592,0.432000084811623,0.43667370843683206,0.42289510730711266,0.43407836741666406,0.46209461467971125,0.4709636586556396,0.4605011808524093,0.43835160311555477,0.43714390721416085,0.4583352791914901,0.4779580029497108,0.472517289484497,0.43078672769741544,0.38851972183302785,0.35098411002332763,0.3144087624184724,0.27963968058714106,0.24741516401496116,0.23868987131474126,0.23868987131474126,0.23868987131474126,0.23868987131474126,0.23868987131474126,0.23868987131474126,0.23868987131474126,0.23868987131474126,0.23868987131474126,0.23868987131474126,0.23868987131474126,0.23868987131474126,0.23868987131474126,0.23868987131474126,0.24133285602400686,0.25190183520147613,0.30859589997804027,0.3744555048514845,0.44114260311653775,0.5151933358297999,0.5606805148372611,0.5552929941996811,0.5318218910719048,0.5239047740816457,0.5348152074055548,0.558526539784787,0.5612271453975151,0.5404754149743038,0.5106800469689297,0.49252895231856,0.5135274998668307,0.5450593231328621,0.5744623906523477,0.5943956708924996,0.6134256636418254,0.6210747371205612,0.6105033078973221,0.5820887780102277,0.574813033637166,0.594565652848736,0.6264262437690296,0.6510617939007968,0.6381630356138979,0.6436249204926061,0.7109055244864089,0.7123703387383085,0.6409752286162963,0.5873692309991966,0.5849620674509566,0.6004612482348888,0.5950187651482993,0.5716040308492353,0.5399159308300505,0.5168572948536581,0.5331839526094354,0.5617494695757348,0.582314585806277
0.5716625156650504,0.5462402899467288,0.5229279186203173,0.5154710763503794,0.5206556460429941,0.456209785149241,0.2983026476587832,0.1993636709548038,0.17388512263869677,0.17480982398308126,0.244092030088979,0.37273182810197925,0.39720188927142336,0.42239551095737765,0.43472897377568587,0.42693992034768663,0.41746236479223353,0.39918653671752147,0.3852837472514404,0.3746638539451002,0.3623022875239883,0.35005563015926233,0.33974210023715296,0.3401549738824885,0.37338083924929727,0.41985133671150066,0.4268768737399391,0.42987876487957777,0.4640459771976965,0.49804030683135597,0.500619435573574,0.4848438563594779,0.4615605938086471,0.45894764092063517,0.4744765388617477,0.48496787276362985,0.4650419029245338,0.4269098850736579,0.385394666453872,0.3499607784456503,0.32211963495066936,0.3036291229445865,0.2749218438712756,0.24833362051488125,0.23929665677114417,0.23868987131474126,0.23868987131474126,0.23868987131474126,0.23868987131474126,0.23868987131474126,0.23868987131474126,0.23868987131474126,0.23868987131474126,0.23868987131474126,0.23868987131474126,0.23812387097317328,0.23962185221435872,0.24930514152754601,0.2712750777459164,0.34648442321929973,0.4063735761917856,0.47133659943678075,0.5407250475530676,0.5548102440547783,0.5325418766763694,0.4985492436784802,0.4943436534496944,0.5146280738644526,0.5529126149000038,0.5698385522477547,0.559561715237515,0.5408737552248618,0.5248941034396202,0.5412459858335179,0.5741499659498672,0.6143407637029337,0.6328380228818375,0.629355332868505,0.6284492909938495,0.6133470160752221,0.5728201536107802,0.5528358237408514,0.5642624938599081,0.5934644938142142,0.6298520327762219,0.6319166278200391,0.6170182786760299,0.6169574493879232,0.610877499538156,0.6085211939224747,0.6072689682574017,0.6080005497333236,0.60487336844073,0.5879774057246842,0.5686404678187617,0.5436950195819761,0.5222238101498299,0.534800367191725,0.5616731267405946,0.5830609228616959
0.5465818215810596,0.535087366420529,0.5261297719591082,0.5176966536245957,0.4622484176950438,0.2983986134013864,0.20857592340109096,0.1955654344903503,0.18222881402615101,0.17324738470275747,0.2531727704164687,0.40140056159114845,0.4496686962564736,0.47597340929889687,0.4853710004694295,0.4548699935647851,0.4210219885915676,0.38823827989298537,0.38747988533414734,0.38889949107810506,0.3636885921426723,0.3402363641332222,0.3447419914392455,0.3657672856932546,0.4026001086603028,0.4257346223522996,0.43973117149864405,0.46414991951446144,0.5014195978890829,0.5125804367313346,0.49736407723521797,0.4768858077774009,0.46516522940492244,0.4730580868968925,0.4825262549171409,0.48632854249572366,0.47101949777698127,0.43676977183913795,0.40860125521797097,0.36315162094209197,0.3335854643448689,0.32682027470951175,0.3137277195804171,0.28220864878989144,0.24851073387787773,0.23767511034439978,0.2384446543127808,0.23868987131474126,0.23868987131474126,0.23868987131474126,0.23868987131474126,0.23868987131474126,0.23868987131474126,0.23911560096164877,0.24074998886000948,0.2428764131815407,0.25653915678099376,0.29620146282034915,0.3303985254400045,0.38126303237678605,0.43232488783853396,0.5036097032093961,0.5407212729565555,0.5513788067565584,0.5228774415437536,0.49182739872093995,0.49990262635369664,0.5318440628134391,0.5673033163269073,0.5805869182625025,0.5812773629063283,0.5816938153172739,0.5696563406743914,0.5781630561232198,0.6045978464092361,0.6369379180210599,0.6485345396118989,0.6246967330200744,0.6032925783116284,0.5863026062347425,0.5619785327414613,0.5585829909705674,0.5659836483784446,0.5851813562247454,0.6200858371407286,0.6285189218196882,0.6058081343781646,0.5762282412083981,0.5685616540793224,0.593433689550146,0.6034911282313886,0.5993474857373315,0.5817066035648656,0.5599109179993653,0.5492725537154513,0.5365006978008601,0.5236972781890218,0.5361122715125045,0.5616734874272904,0.5882151397714577
0.5586613016266421,0.5580063396155444,0.5560410862017507,0.5276037731035912,0.40887928809713503,0.23062350806617124,0.1900448984660226,0.20663467601245572,0.20578698926030403,0.23725768314771697,0.3890539628952583,0.47393545906037,0.4785040307687586,0.4875863320777002,0.506105641766346,0.5040207658095266,0.4683789942288623,0.41188477459559925,0.408283308202025,0.417824704452477,0.3977678208630432,0.37985011254081885,0.3947227021678227,0.419304779153117,0.4369458714520869,0.4383447454350101,0.45542830023439657,0.48687199016671356,0.5100926997909507,0.4941447826871833,0.46591664579009623,0.44398297097777933,0.4420583727607688,0.4590161221871337,0.46609013553952783,0.47218603518104163,0.47978228058909983,0.4670985582122764,0.4423898103485069,0.4069796962442317,0.36819430392014607,0.3630019967601132,0.35834774145003223,0.336466321680314,0.29110307365382654,0.2497211566250974,0.23910130600422855,0.24109903799149845,0.2416830203507819,0.24038863210858455,0.23998922536181497,0.24225095425387747,0.24952837509192446,0.2589455513783224,0.279415544913424,0.2961162609281106,0.32185451944147114,0.3621823878005054,0.3858197377782303,0.40647227917870915,0.45370730770018575,0.5053620611368765,0.5408132819495121,0.5552410826375211,0.5403316780277456,0.5241933937948403,0.5439858789880696,0.582882054772497,0.5987684353809071,0.5904860382258307,0.5872721136327526,0.5836793211613845,0.5686320256440879,0.5727272131124992,0.5956653754278896,0.6250653845106269,0.6383090798031119,0.6088656290815376,0.5725632983406954,0.5502018733063709,0.549638637303356,0.5764634722232268,0.5877244198851632,0.6000024069295993,0.626875618107757,0.628914065041543,0.5993301082844726,0.5550996130193714,0.5448105555700173,0.5643255642553687,0.5722883390736975,0.569879211127151,0.5613150956878623,0.5529300573120078,0.5506987872371635,0.5430319401273689,0.5300851526508292,0.5378848167905769,0.5616740603769383,0.5919989141473732
0.5826775664761166,0.5830274083741782,0.563110457756396,0.4612323553607096,0.2799766166788282,0.18490942045361025,0.18718825913952242,0.21021348813016033,0.22165263730186505,0.2776313579604289,0.4552762077981806,0.5122803454272137,0.4927151303712558,0.4904926037622387,0.5116079739294409,0.5237110653831257,0.49994757912811766,0.46240920711737166,0.4595958989924888,0.47090459382814087,0.46305966018291556,0.4560333368081238,0.4724452138571059,0.4829361011492073,0.46034567966201734,0.44048296766519335,0.45448688023897577,0.4827680052244836,0.495443392063137,0.4701245191345176,0.4404156270275077,0.4196246984252891,0.41870556202029796,0.43532100793218226,0.4414877223620376,0.4523402823904714,0.4792353215465507,0.48580994334315863,0.46601798933243366,0.4362017753372154,0.415733502492887,0.41216893489522455,0.4113645986363976,0.3953456554678,0.35765457266528966,0.30557728083236807,0.2601246501482545,0.25192790617661664,0.2500821868025439,0.24872045781980634,0.2488610537506899,0.26090398499772804,0.29666964366226456,0.3198742353447449,0.33568515579706165,0.35054091379460944,0.3827453672715763,0.42065645062381873,0.436929686921428,0.4387284593312045,0.43855801805507133,0.4900932734884209,0.5435753194915219,0.5706564445849677,0.576815851721482,0.5744465116260147,0.5933205331072993,0.6167822448588365,0.6084138561871055,0.5799279370623641,0.5699655162000848,0.5615367645158014,0.5454388180910421,0.5494010328419817,0.5704317915383771,0.5988029830260405,0.6187437787473694,0.5966454696169323,0.5650003153703225,0.5447327142014489,0.5505200995838098,0.577816116777604,0.5883781130876418,0.601134008901411,0.6272463732470183,0.6231736315241736,0.5916044545160855,0.5467177968108313,0.5313732967650361,0.5418487189586636,0.5467226425648192,0.5492026808509788,0.5595655566850861,0.5698684590706786,0.57237591099238,0.562820794510301,0.5418611931452713,0.5409206482419928,0.5616226648749969,0.5912012251863441
0.5885536415650275,0.589738358735543,0.5044986898924266,0.33282723994222263,0.20426489098366668,0.16937502192368847,0.1864341439974999,0.21434668929565318,0.25106324441459543,0.34360316216482734,0.5007694620760924,0.5400675874909024,0.5070983729152968,0.4932592281946702,0.5117303992242437,0.5210743502583489,0.4892664894630847,0.45310190892478824,0.45850956126472897,0.48278890091489035,0.5033550351946339,0.5121547679056372,0.519904222807072,0.5114030684853523,0.46358924928538514,0.43064629728778847,0.4377050247444407,0.4553992797599933,0.45943800384137695,0.44227755982000017,0.4275433900604209,0.42142497029399484,0.42599179473018256,0.43176819112395853,0.42765274968242256,0.4311975884089431,0.45727114405727,0.4738841059455833,0.46339072313403695,0.44162311282252875,0.43121969130134197,0.4543499569256003,0.4630144115736393,0.45001467439108983,0.41478518703083644,0.364415908748821,0.3047987206086627,0.29147457090647566,0.2928958379701824,0.3071578706964576,0.31083013532605475,0.3211953874922777,0.3555466735695229,0.37842542957013314,0.3818271645518394,0.38738144468719593,0.416484341484596,0.45444789851286505,0.4662610740510158,0.44165726524072,0.4247613050315514,0.4620221205034488,0.5386528529681014,0.5917130472620927,0.6116992152603844,0.6169302486615567,0.6302480063905315,0.6399514732885502,0.6165026807386089,0.574931506909744,0.5564681290379464,0.5464418846259327,0.5392548576605246,0.5450234778971506,0.5516383152271556,0.5598138744680018,0.5750220177386762,0.5747454810294728,0.564527132037206,0.5563317557011171,0.56184092109132,0.5807167273513185,0.5930529676388893,0.6065013979810426,0.620260382064359,0.6101208954718482,0.5875943969880382,0.5625408572901904,0.5458076089910178,0.5390878561378574,0.5328880552774548,0.5304539921531639,0.5447217303166351,0.5639971050271949,0.5694285782823524,0.5650025549182853,0.554691204691883,0.5527590039024315,0.5609811193147859,0.5777963134298285
0.5489318418850306,0.5371819484403131,0.40577233907503746,0.28868331574656314,0.19828401782307178,0.17109946929724007,0.18933976095271074,0.21875224324881135,0.2901357453022078,0.4474747443584256,0.5361568868881859,0.5394291965269999,0.5057971007617179,0.49293508725817115,0.5100179882176494,0.5116184427959576,0.4703664633312213,0.4377156317949914,0.44915396669373625,0.4833752333580225,0.5215468445455582,0.5291764427897062,0.517021006886248,0.49258119909695,0.4497009617618121,0.42672000854950404,0.42848662921691316,0.43103163562530306,0.4273885743454272,0.4291814680857558,0.43987768693383245,0.45731519563611056,0.4706894288819602,0.45906431777890233,0.4384407172959616,0.4246708403390219,0.42990475995953586,0.44401861532147435,0.4440349946778586,0.43311712248738315,0.42679634205294587,0.4453932280915742,0.4724196738427354,0.4849962370735935,0.4502807584919697,0.41456600114615505,0.3946113588809795,0.3985759217397086,0.3997363027724883,0.3915558062806166,0.37910754149991627,0.37833488671769977,0.4016333658521716,0.42367753545393405,0.4233911439766424,0.4192309725271655,0.4336599887019994,0.4466053372082218,0.4468975333706465,0.4341357826579355,0.4217490234360707,0.44061735499220755,0.4960778706842032,0.5725256542732794,0.6173078682605867,0.6241673249770152,0.6273167938464536,0.632405483881141,0.6215436468955545,0.591532263207067,0.5672213763743174,0.5548812075188236,0.5613826787762308,0.5680591358183165,0.554015397216954,0.5360321580376881,0.5324047318665828,0.5491164122571142,0.5654786606443835,0.5719115235628616,0.5663825674972629,0.5666658770775885,0.5817568372872781,0.6017402261165249,0.6116584218367378,0.6016891762046224,0.5904501038814406,0.5840092466876959,0.5781405580242966,0.5629972660514483,0.543678066397663,0.5277720781812629,0.5287880751142463,0.5438531401405295,0.549560869003292,0.5551246884117087,0.5680465544412097,0.5703755709180793,0.5599508873025141,0.5542033376941642
0.4834004381363044,0.4927872233137771,0.454282079413645,0.39038309538277843,0.2682622142673734,0.23183108404092356,0.25192568442978064,0.27807255110094137,0.3371691139761184,0.46910382224110203,0.5173617809255078,0.5119581964692042,0.49084271642738564,0.48980077175810255,0.5055455268483041,0.5002395806733397,0.4703146331934879,0.4504916777971813,0.46517996302318276,0.4981351649746135,0.5251796428251281,0.5126850593726935,0.4854123248718003,0.4601579221741385,0.44291058508020464,0.4388778509858584,0.4406572116857327,0.43623792137802553,0.42469045407224154,0.43207077257765036,0.4552080101963252,0.48516510200464424,0.5032203264232844,0.48234660696947274,0.45294923257791697,0.4302912331815928,0.4255484707351893,0.43938232135736643,0.4452329583164424,0.4376791841980189,0.42512783622690453,0.4333067804749572,0.4572294333433633,0.4707577640751341,0.45514769520694776,0.4409448532411808,0.45272841514796636,0.473560475196378,0.48347847895894136,0.4610649371353407,0.4346511216955855,0.42571443863310354,0.4463502506825658,0.46889808534076427,0.4570025743666035,0.43399106588458625,0.4288380089054069,0.4424861433753928,0.44832375699848975,0.4406570266362169,0.42772438631515447,0.43602868580744186,0.46651414083668963,0.5197476873671114,0.5774835802058305,0.5950169056836909,0.5956173145290693,0.6031173915249445,0.6146922393227577,0.605726544195357,0.5810048922281373,0.5652634927640315,0.57736226869138,0.5838383460277194,0.5639041091514401,0.5331329858115978,0.5155815109749129,0.5367879207005808,0.5660233376199348,0.5791521731328729,0.5641508090147934,0.5511981610630907,0.5670126035694846,0.5899716917330546,0.5954808686192915,0.5818907711915065,0.5747154083224739,0.5791011082282015,0.590150738223076,0.5819796088279048,0.5584150674740953,0.5356633278379401,0.5307354780683479,0.5446110728034934,0.5507142546424827,0.5602291467437706,0.5807492452511749,0.5808135571727714,0.5594030284160934,0.5392613890418967
0.46795799267147165,0.47363244466348153,0.4752224206246149,0.45437886102484015,0.4061808219849532,0.40089479872057543,0.42311814965565214,0.43534817007388027,0.42239551897106925,0.4320688851156696,0.44913130503612886,0.47446901900984984,0.4766344391954882,0.48717982271441573,0.501626557841092,0.49889356825510534,0.4832890674136823,0.4749119798089127,0.49163902908412965,0.517844540266992,0.5229701044807396,0.4900048624804466,0.4579866579753213,0.43971839686841174,0.4428210682091325,0.4496924327102792,0.4536968282782156,0.45034749308602445,0.43019106781546496,0.428368988440631,0.44938613146408235,0.47926500987126264,0.4975273604304973,0.4775362397344295,0.44909210221706664,0.42993026923252975,0.43499976198985013,0.4577727953703586,0.4658884088308993,0.4559181536348048,0.4337993115201079,0.43224668603348826,0.4542782165212225,0.46957764106042843,0.45179546518418306,0.43207222961104963,0.44844986615937255,0.48521766384351167,0.5065141898301262,0.486465875634234,0.45700404778512954,0.44360129188102904,0.4591534199962577,0.4728241327056846,0.4570029049949905,0.43666472461318584,0.44129438873624416,0.4649364265451392,0.4738763811836204,0.4643670159819148,0.4418768117379813,0.43907041081546705,0.45976839677091447,0.4858755754009017,0.5158666489919073,0.5543129975067663,0.5671950847828271,0.57880301491622,0.6024254553104786,0.6044929792924214,0.5792785117219137,0.558674054845962,0.5696201372930572,0.5799341237463767,0.563883740413655,0.5342599796624283,0.5160485844797813,0.5365631971072916,0.566048417317327,0.5794199648151359,0.5634661677131615,0.548965618277546,0.5640990418220124,0.5839763330915213,0.5797176320388597,0.5572554551265934,0.5482690829670733,0.5562069801267842,0.5789728259724053,0.5820106663246483,0.5613285153588108,0.5410360830674132,0.5441350030550918,0.5658965024003944,0.5743293884048424,0.5817882436165771,0.5931428256282767,0.5836095589051208,0.5593775636354645,0.5360044288287125
0.48994902276895547,0.481042864745947,0.48087008108088936,0.47318501344983,0.4558638343357423,0.4542463450497888,0.4674734065409654,0.44126941593478664,0.3252595543933738,0.2673404598734018,0.28977791684007836,0.3776418751493132,0.43269152426860524,0.485327544153316,0.5039923973061514,0.5083813777283315,0.5068098730276643,0.5077440040801164,0.5212932560729995,0.5320129874000511,0.5077203753242454,0.457523542838927,0.42833366875693585,0.42363193784880193,0.44854316106011294,0.4633503153059473,0.4602073762790071,0.4446628445647976,0.4149213317135137,0.4052447935228187,0.41908766728517793,0.4399490426170566,0.455054674564574,0.44844794970629,0.4362189568920919,0.43281242203590653,0.45079753947136186,0.47538942497846864,0.4823499063837268,0.47320600849268224,0.45033379112582783,0.4425721891417452,0.45871943757409406,0.4703065152113336,0.43935368596145835,0.400506175956429,0.41084912562716525,0.4581799546543932,0.49145852952801083,0.4830007191433722,0.4570042610411338,0.4436012933392008,0.4591534199962577,0.4728241327056846,0.45700293991958707,0.43774754729365917,0.4498068767437896,0.48610681619739143,0.5041737052450141,0.5021146002063712,0.4773007459434293,0.4558694387030272,0.4586231381726818,0.4632235240890675,0.4662362820084225,0.5028620718382129,0.5309257374624318,0.5511379279846582,0.5884746683618886,0.6060643450397311,0.5881633035203598,0.5695529743042248,0.566894674022361,0.5703351382960469,0.5644483563496436,0.5471780370659554,0.5297284725618128,0.5404699283490143,0.5660485830927453,0.5799045803794822,0.5620013466874323,0.540068865085598,0.547315922642704,0.5594865190634689,0.5493678379572682,0.5265749269321192,0.5184779221246023,0.529735328162045,0.5662789019972976,0.5881646831140102,0.5781110318782977,0.561222504342552,0.5587793276483377,0.5755800175318679,0.5881639065990409,0.6001949819574317,0.606449142361637,0.5868033173332176,0.5593777731830438,0.5368309947500189
0.5099760445604286,0.5019732288666205,0.5007808095299257,0.49424382927393296,0.47463985623151356,0.46091064030329,0.4607973021046903,0.4148909392651732,0.27135900656945333,0.21183266637122544,0.21748360269795142,0.2561350338929116,0.3282161679683466,0.4574754783178905,0.5021736808126851,0.5073838041800725,0.5098556181845038,0.5126239982680901,0.5180364909419974,0.5156927051792106,0.48542578246688456,0.4469054905177736,0.43159016275751616,0.43894563882776066,0.46611411425831417,0.4653981114433176,0.4469546609217197,0.42325927621505743,0.40066448878582717,0.3981408408871149,0.40513613322568964,0.40944859927353255,0.41224157791363714,0.4202141521476459,0.4323771756120276,0.4483658624790859,0.4664588270686817,0.47430031280743595,0.4747379539512348,0.4707479355092594,0.4600476336189764,0.4548605814112996,0.45987647656499847,0.45608562199562525,0.41982241565279665,0.387217475985951,0.3919586336345851,0.4328734885864971,0.4753697176120098,0.47939537487452133,0.4570343623416946,0.443610852675874,0.4591560080701636,0.47282424915680354,0.4570022412937065,0.4335861447105369,0.436945912505146,0.4738969596872291,0.5019485774288139,0.5177495363006553,0.5098328891048393,0.47819398711049776,0.4575761092955293,0.441853650866461,0.43001957394464435,0.45257678517028943,0.5033200533555168,0.5415427957758134,0.5772238845984112,0.5964751942737321,0.5926667715621761,0.5787491595557994,0.5589289441843321,0.5547763357630083,0.5654760382721169,0.5679208520364527,0.5516908231029473,0.5467419746170006,0.5660491145985387,0.5827547225007973,0.5689664992341957,0.542011067534443,0.5382372471342048,0.5418623673567734,0.5357186245934238,0.5251665638034406,0.5217310302777287,0.5307300191058134,0.5611379462349975,0.586498141426056,0.5871890705413462,0.5740099060337228,0.5565311628231964,0.5595142903575858,0.5773735943088493,0.6005723330030402,0.6120208027610741,0.5889016750106773,0.5593785996386966,0.5419856997976265
0.5002945097932776,0.49973171379661174,0.4996288898239097,0.497146135831829,0.48860712053339483,0.4806459558559803,0.47620179181542716,0.4254455705735961,0.2874665912777432,0.23842333292452644,0.2368644459997479,0.2429975729636224,0.29854112613613804,0.4351064522645703,0.4834562096172825,0.48586155030246764,0.48609928566270694,0.4863267305341536,0.486589062477108,0.48419495251273725,0.4748548569927177,0.46552422423474055,0.4630230430327959,0.4718249670297967,0.479949485263207,0.44887793693442424,0.42647593048609544,0.40703823782306914,0.4011432271511011,0.41449607582933845,0.4207813816969622,0.4139055371050893,0.4017553973517053,0.4094693752948568,0.43269579198252184,0.4555464110156396,0.4616456563212028,0.44909265587106856,0.44333602728352434,0.4431291807333983,0.442546159594416,0.44212570007609114,0.44113771683951236,0.4328794459150536,0.4134304793459812,0.4013027140957222,0.4021401712190942,0.4340761121971375,0.49471603266927744,0.4886729345351044,0.45935507835586853,0.4451680316399961,0.45959070481365316,0.4728527174243251,0.45700413145877455,0.42792774189361993,0.41461268164105014,0.44041785028075786,0.47104899909591286,0.4997886421928367,0.5129036250362358,0.4873315605173072,0.45702771831522837,0.4341903965719683,0.4285952874809088,0.44796279794740856,0.48592034118916594,0.5416594310153102,0.5676432888942098,0.574846870943913,0.575754683332578,0.5658097478122811,0.5448771130032265,0.5446270647954706,0.5660232961947284,0.5789453240880928,0.56336345102882,0.5500754627237282,0.5660497046845219,0.5866721930751763,0.5834714668641052,0.5618571157405339,0.5541273715743981,0.5542547154078445,0.5538741626037826,0.5533050663436018,0.5530894261089533,0.5548921179013444,0.5617583507361144,0.5695307472161008,0.571299293451961,0.5614495781665496,0.5407295170078239,0.5408983054408989,0.5626366141090354,0.5928147795448264,0.6106745424518547,0.5891906413087806,0.5593791725883446,0.5457694741735419
0.4770658093342742,0.47811651181673614,0.4779390933761558,0.4806110629033501,0.4913498862483065,0.5010699660820271,0.4908589508279957,0.4228932822278874,0.31225041106887835,0.29601675754789564,0.30220694135963244,0.3008276864262074,0.3269331246416139,0.42013750825147095,0.4577118062766274,0.4606089030015637,0.4614891833374998,0.4626285131314799,0.4629622320482692,0.46612642359232515,0.476898677537795,0.48672250796441063,0.488256686899723,0.48699086377299405,0.4611011741908053,0.4052873225171489,0.39654348900461817,0.38873566105583196,0.3983160746808146,0.4323380393968383,0.4441184316629514,0.4339006617032804,0.4123578243622019,0.4125454550717718,0.4346284826389987,0.4550076000369458,0.4507809038989983,0.4279721415081752,0.41971957168667695,0.4196857716091553,0.4191970460714074,0.4172151197070505,0.41136863498066156,0.40535628893613596,0.4116450981715593,0.42154308510348204,0.42525186319755426,0.46313815372085176,0.549755564669852,0.5371018582488468,0.501413852051788,0.4785830204644198,0.4700693706796518,0.4755746688336203,0.45941710971744454,0.42760637858002576,0.40260211628682946,0.4162121867025799,0.4435714209813555,0.47546320285892096,0.5004720392475089,0.48646760013198465,0.45895354854488596,0.4390450659336639,0.4429209202804292,0.46575166639490906,0.4949975498775661,0.5509405371746603,0.5628519361146906,0.5539861644380697,0.5510999203145599,0.5436393932200063,0.5322847906064753,0.5418180572638474,0.566048478784617,0.5798351648101768,0.5650408934639952,0.5511992710480652,0.5659986351454815,0.5883559929976425,0.5944604190835915,0.5823428961286506,0.5767547475943527,0.5767547475943527,0.57675474757936,0.5767545440507215,0.576720980943941,0.57281059274381,0.5594855083143421,0.5475878548598215,0.544831125850902,0.5383017080310039,0.5285387161025962,0.5391689705500564,0.5635989858607016,0.5939074220905265,0.6113968851814231,0.5893543156633338,0.5593791988516411,0.5460076513538321
0.472417348886486,0.4836548301229438,0.4805671692978794,0.4807185574293314,0.5000781745265669,0.5166833817042246,0.4840553266591233,0.3858237540009379,0.35345276463310693,0.40984527320847997,0.4277927355730914,0.41897607810569865,0.41181154811157794,0.42645403929637976,0.4379041635193084,0.4411037556514818,0.4496491418400645,0.4621012833758018,0.46590029640826536,0.4726834122720654,0.49246668126601273,0.505305661248318,0.5006350876916272,0.4703381852527647,0.3940208777405358,0.3506090639889905,0.3458874774296029,0.3475520608274896,0.3754634438936651,0.42529570484006446,0.43575861898884705,0.4202992422852621,0.40372305186770235,0.4214471956775943,0.4499027420634374,0.46891839535169977,0.459415241526631,0.43194281593785494,0.4226560536985282,0.423047930928297,0.41954603018648656,0.4061140702704018,0.3886691288429623,0.3857950583553541,0.41147189618130314,0.43662290136437565,0.43737103258092747,0.44845575790697273,0.5161166771233137,0.6072996368992492,0.6157318303383985,0.5767384149010975,0.5223729913320374,0.5127163748290906,0.48714135701210154,0.45594121921957226,0.4160836424350897,0.4004879937419215,0.41327745717771386,0.4420191263044781,0.48075348831600745,0.4906596007595023,0.4757368337154274,0.4640191408683606,0.4717691395235445,0.48631430915649126,0.4937869427015762,0.5209594985306409,0.5481470775030781,0.5458242001194308,0.537228593597249,0.5252322972262248,0.5189784727850781,0.5386242988357506,0.5660492992798052,0.5846231746325454,0.579281594122406,0.563308231795784,0.5653572115885279,0.5750937479386291,0.5792430045852623,0.575758567715641,0.5738065483818016,0.5738065483818016,0.5738065483818016,0.5738064932839146,0.5737964258735242,0.5672400050683019,0.5438634853495573,0.5206048707533442,0.5148796053113633,0.5137118142432809,0.522780469338147,0.5513688164601287,0.5800609710464439,0.6084602597007713,0.6192739370117148,0.5908653083095512,0.5593790330762228,0.5455230357894858
0.48863913262759845,0.509324681584643,0.49993068108858374,0.490448205496241,0.5039678257058795,0.5132844272840184,0.48090187513549953,0.42564240811073795,0.428690306414644,0.46105158041749117,0.4577506589924086,0.4444782146255816,0.443707656023509,0.4443444477816078,0.43794009360415365,0.43814248481577084,0.45253500024519666,0.47628823643358587,0.48401039643498855,0.4910209427616258,0.5057501413870578,0.5048241643004707,0.48685417051411745,0.43491723274265137,0.3369156619991597,0.31568149180678806,0.329789369316025,0.3494664678447093,0.37368532419069267,0.38031747570444485,0.3655153758153733,0.34250370169843913,0.34109578459607737,0.3957742693408732,0.4369137063406461,0.457796394673358,0.4570289589803832,0.44548171551251786,0.442274501283956,0.4473189615195992,0.44413150833246,0.41986734280368837,0.39433894542869585,0.3867982813693635,0.4113494294428815,0.43397179038765804,0.42507023839119706,0.41817026085689396,0.4797214437322722,0.6245842536497689,0.6572952270344314,0.6283602582532797,0.6043005563338086,0.6013758786261849,0.5546903861123671,0.5227155725505719,0.4656256925538267,0.4217004727214644,0.41594042141439114,0.4312494114884654,0.46412156855971387,0.4858330003349713,0.484813518616679,0.4844646932917226,0.4916074196122874,0.47890680273666564,0.42362318998139403,0.3881055004416903,0.4782475225621182,0.5457687291822313,0.546819651742223,0.5248201563154236,0.5134064763567986,0.5365259401360378,0.5660506165424547,0.5923100652942619,0.6021442684183083,0.5827485116968116,0.5643272160390578,0.5520463499078713,0.5469186547050437,0.5514409187087974,0.5539372267971001,0.5539372267971001,0.5539372267971001,0.553937224317955,0.5539360887969098,0.5501782845941752,0.5363067757325364,0.5214795404734343,0.517638322096224,0.5171289561325868,0.5285583672528915,0.5593983742246589,0.5886248352775535,0.6160309555778465,0.623371744419094,0.5916513594636879,0.5593785015704296,0.5426728936681708
0.4954894751855734,0.513568412368622,0.4999646897582022,0.485585198207944,0.4941531842533857,0.49316983025931405,0.4577176941095075,0.43247117181030237,0.4456824154470308,0.46191899986375695,0.451501276663998,0.43978108557956963,0.4544404402806077,0.4667311215461688,0.4466220750526261,0.41644306684232385,0.41607830302722165,0.4373846525576994,0.44528789719669676,0.4527336736592517,0.46587638198429665,0.4587556637722587,0.4358888584726464,0.3865420680719682,0.3043913914719151,0.30150716190059745,0.32954011143210926,0.3596142590347592,0.37826879133856517,0.358337643457481,0.3292336406494979,0.30029373474367227,0.2903703137847545,0.32734703054834746,0.3623270354494866,0.3849505490877637,0.3979968767616916,0.414619106751543,0.4403904307221199,0.5027255751896682,0.5107285053134778,0.4506972022108671,0.4087064922279501,0.3947753827662835,0.41094047184423066,0.42521569551518174,0.4097596815420406,0.39840676791908375,0.4550334925301633,0.5928827936370913,0.6489092421881569,0.6325381963767256,0.6180165153764927,0.6343184971634585,0.6393970134310278,0.6254316173733049,0.5498521757680525,0.49132892294195984,0.45746102447063575,0.45132280928695134,0.4591338320689882,0.467189884225856,0.46852149742655225,0.4741729345855883,0.4773850555693906,0.4247503973915656,0.32375172699811144,0.27983394206406953,0.3559525008113064,0.49047109114478715,0.5456860032655417,0.5313784665062459,0.5147179468666092,0.536236637809092,0.566051315595381,0.5963955196390114,0.6142953994522057,0.5930806967267952,0.5637799643749557,0.5411555710086784,0.5358471634635887,0.5491543355236015,0.5550899269828758,0.5550899269828758,0.5550899269828758,0.5550899269678831,0.5550896936369222,0.5548303757028807,0.5533246638805229,0.5504193449383684,0.5489970695948527,0.5428214449837068,0.53504572682411,0.547579773033615,0.5724615390250645,0.6017421605834923,0.6156376126060448,0.5901677849540672,0.5593779114844462,0.5387554230937919
0.48738840464635785,0.5028420940293288,0.5079216144293884,0.49532154411824786,0.48734769515363596,0.48112558005238726,0.4554339685109346,0.4398242881432297,0.45470029094007747,0.4725953845464155,0.47090826001150393,0.4633251580058086,0.47875497863017336,0.48206575619982217,0.42077222246124896,0.3291294599061831,0.30002306657743616,0.31126153200909795,0.3174928516374286,0.3277634270713981,0.3495357326052146,0.35109925807658127,0.3359302765077481,0.31652835258890233,0.2875483662135923,0.3025987860391427,0.331454565807216,0.3608852109147121,0.3775876040024545,0.3561111608411749,0.3273131171871973,0.29659286835611687,0.27416010643687594,0.29057140321833763,0.31866407863158025,0.3397144008545087,0.34352083969158753,0.3415655241596236,0.41707988312717553,0.633757254934914,0.6667165220243292,0.4975999436155687,0.4125643528234641,0.3958405120036474,0.4098608822855794,0.4221743504354915,0.4068899205397816,0.3950709867044937,0.4246182752353877,0.5112017527237467,0.6211948938231715,0.6312817061710736,0.608601843696577,0.6226449698832099,0.649157510142431,0.665424653274222,0.6531246001474413,0.6134673111379915,0.5409166707455668,0.50426246040153,0.4670408037051289,0.44617436582080594,0.432943785824729,0.41844312220548574,0.4092416395309906,0.34019124179639215,0.27444380279647473,0.25328339075362394,0.2851831068612251,0.3706703787734953,0.4775531275594348,0.5184968874542989,0.5153211485292202,0.5357607651440375,0.564071107361058,0.5938453268081629,0.6128352485457287,0.5930649968633613,0.5637552305894158,0.5435776191601716,0.5481845426211319,0.5709112903872691,0.5786540212879143,0.5785769390711746,0.5797060134658776,0.5807567152032814,0.5805787387506237,0.5794388861601415,0.5772418924493787,0.5749882150126909,0.5731496105957591,0.5615508540043825,0.5342209916896463,0.5268163296382111,0.5459207075486144,0.577128364408966,0.6017278197059592,0.5882006141195258,0.5613538144925794,0.5383580821404419
0.5359253106271118,0.5495330522035858,0.5898281868404449,0.5738759883280748,0.5242871807175983,0.5136831993187168,0.48752904821467336,0.473223719876118,0.47797253552577057,0.48472978603381045,0.4832792702881858,0.48485642287663594,0.49947559657781737,0.4702388778015538,0.35595593499700856,0.27477266352466406,0.24766704447762644,0.2553596968323748,0.26672895202615476,0.2799190337417386,0.2980986782524151,0.30213552985155523,0.2993659503957162,0.3042625354334822,0.3088533672967477,0.32714765133592927,0.34759284181126104,0.36418983366584384,0.36438270237540804,0.34355509158467856,0.3279489139207068,0.31223353801498904,0.29627970107028745,0.3024299899007757,0.32030669293046926,0.3288078519921634,0.31094738291792523,0.31066036587680224,0.4427037077597495,0.6848260312310355,0.7234879114961054,0.5476992378292248,0.43050201153873563,0.4028459146207491,0.40071984228960084,0.3990208880247028,0.39106568792821983,0.3900581344396803,0.41403227150352767,0.48622561909042433,0.6261968819867431,0.656187017364433,0.6231130692991459,0.6162259685806162,0.6375888217936161,0.6680604236204388,0.6951256835867021,0.6885098004166322,0.6544309834401638,0.6065547347058412,0.5077998683774714,0.4407878997870073,0.3653399057370308,0.2924622901587991,0.2789010227376839,0.26407099082203217,0.24839245477754487,0.24920308431535343,0.27656011168235184,0.3109167203238783,0.372181726639085,0.47131500613530874,0.5192368112201997,0.5335540403243877,0.5463369215721392,0.5663408199393075,0.5912779480002465,0.5876472703972684,0.5637558414438925,0.5475390630612336,0.5623525599787197,0.5892394053587875,0.5918480160484276,0.5899342122325859,0.6020856114873848,0.6133230927238427,0.6102334596409072,0.5967508621180616,0.5762725781885355,0.5675751488642884,0.5707311862768858,0.5667332330158902,0.5382585747176966,0.5133831856256179,0.5153029384860953,0.5348300161609612,0.5680489647040328,0.5843847664842567,0.5784565674910507,0.5618697735319098
0.667660722646215,0.6598507271827252,0.6573404662332458,0.6327613067380282,0.605269276032393,0.5988398409968998,0.553083637929666,0.5280163576411427,0.49539432710624176,0.47911030221264006,0.4864744147163056,0.5056896976864866,0.5132590961388223,0.44598482877106976,0.32498852796429895,0.26237457165461986,0.2400072451285301,0.25414560035323763,0.2767882318214403,0.29083821782626973,0.28986608805779546,0.28491292633779775,0.29445375084685105,0.31680811170341316,0.3421345267922098,0.3507040500130296,0.3556392389967812,0.3537022146234473,0.33463665869330966,0.3217648359785041,0.3289795678878387,0.33912432518100344,0.34003409173583593,0.33646304633712376,0.3396544815927588,0.33251963784540983,0.3027796824561123,0.35931384826861545,0.6004362776712617,0.750049194860354,0.764212446437718,0.660310612391309,0.4795176103677164,0.417839839957504,0.3954072954982408,0.37807515373642536,0.3835301930600255,0.396510156818463,0.41249723608402394,0.46794798595237014,0.6055764732951989,0.6750784739016187,0.6545674729083449,0.6335513820512843,0.6489229381495929,0.6810237283605703,0.708015253091872,0.6996208574056791,0.6769054432760087,0.6436633412070738,0.5749233062670982,0.46101679965670694,0.3057948610372133,0.23357232242954828,0.2209302431663702,0.22757832756331436,0.24009121342356088,0.25946795441902226,0.28626004434766605,0.29858988812612397,0.31021217535662204,0.37323399364477006,0.46963687258185316,0.4993843247265652,0.5219126238281602,0.5368344189426237,0.5651829972063079,0.5805888354561868,0.5637563312286363,0.5500712486753425,0.5678880861798487,0.5886918845424614,0.5800286236057244,0.5730942132720909,0.5956966283569298,0.6163798215637168,0.606976360330844,0.5778085165930074,0.5422036502676237,0.5366304362744648,0.5518993580704638,0.5677298170304225,0.5640333790733675,0.5366255419734172,0.5170133444318732,0.5098169687042198,0.529001832271572,0.566701999569889,0.5880496415147742,0.5876511129388771
0.7133919121468779,0.7056070230550547,0.6828454050797591,0.6526042406585156,0.6336300607435138,0.6464053236501491,0.6513350011922923,0.6322915346521766,0.5435064034702756,0.4834257613329249,0.48897503683015153,0.5156947777578182,0.5011600474891391,0.385539501407304,0.30119291667634107,0.2606178218799133,0.24172493921761912,0.262601752016972,0.2920610728511771,0.30552408125495517,0.2907226995385712,0.2775424600564921,0.29345098362700484,0.32372096435063813,0.34991147237395587,0.3444514732287989,0.3392011678615371,0.3298157307157477,0.3089150848636588,0.30828233089541995,0.32952716954296435,0.35205782976245487,0.35718114402389134,0.34391572663698605,0.33823422302689266,0.32850691008509514,0.3274699906994982,0.4559776776262471,0.7071763175118413,0.8007097307554154,0.7910539380378763,0.7168636700595427,0.5431481016649075,0.44608061071767213,0.4049091367704008,0.3857973256658756,0.4002400367072662,0.4158546127822252,0.40992895818647257,0.4180316990753442,0.5075221001708559,0.6438339946713442,0.6649397256294463,0.6490257419165757,0.6639337950842642,0.6945978964925252,0.7134736018096824,0.6929682739987097,0.6635114009846301,0.6361328366183273,0.5622621298599025,0.3811363679977756,0.27667355794041504,0.2476334070506846,0.2303038371832523,0.2343822657522573,0.2567810387021041,0.28086319461957343,0.2911270460006575,0.28236166299428017,0.2784464571474182,0.29832191680312625,0.34326129262925054,0.3795213347918692,0.4654329678461817,0.524222544089638,0.5600450612985772,0.5786949113803129,0.5637433560210532,0.5503599920783465,0.5661224552903598,0.5802119845066493,0.5647313238714579,0.5527263098958394,0.5724854925108264,0.5901855903596954,0.5755283596674925,0.5428288142279439,0.5160002456252637,0.5284956269783971,0.5547483425272917,0.5824747930336558,0.5988540919007951,0.5770434391088128,0.5476390424172562,0.5203908803710898,0.5116653802642783,0.5412177237520179,0.572433487589117,0.5840851190338097
0.7051983941093773,0.7059703784440197,0.6842524996297041,0.6534974332619339,0.6344217835925535,0.6545767426483362,0.6827045470627342,0.6868441063673667,0.6265225408633869,0.5406791270090447,0.5237627280750607,0.5183432888407509,0.470829764216103,0.353864531755523,0.29266785201734247,0.26166884299361,0.2441906719417259,0.2645342889080008,0.29299726305047274,0.3054156024678928,0.2898005223562188,0.27690982380154316,0.2933937531844978,0.32145302975135276,0.3384049686842977,0.32301086457358547,0.3145983114318172,0.3075568477814819,0.2973617913970908,0.3075539859781226,0.3314511692920884,0.35129712846374117,0.3466370135389005,0.3233869718381877,0.31466555666632545,0.3138813190802513,0.3885274210848833,0.6346587479777235,0.7925782808174613,0.8278172277318846,0.8067951837466922,0.769141504360948,0.6894486921182295,0.5425621896384262,0.436853142287348,0.40749098498854097,0.4228835530327897,0.432816920521656,0.4068792126507494,0.3865884286342757,0.45276860959611964,0.6106361074816047,0.6532267705222393,0.6477830937373826,0.6649086774376949,0.6950253548870048,0.7121356623826465,0.6901367895443842,0.6590787043650903,0.6177290621435348,0.5129448822685492,0.3437456492557227,0.285962899364544,0.27341632907845037,0.25566754734500863,0.2587365703542269,0.2813701125631293,0.29994995918368905,0.2897560743431147,0.2617019088831524,0.2527277644332052,0.26561444939843004,0.2963707256964905,0.31847159499058897,0.3692142050110787,0.4767375461447607,0.5568339876264663,0.5784249359909949,0.5616138958920672,0.5479914117227598,0.5627629413823887,0.5756892729173704,0.5596925518998923,0.5447123589954386,0.5551141967257196,0.5646686302402909,0.5480183238231162,0.5211490965375618,0.5156136183370179,0.5490060868762886,0.5807835941440705,0.6082449143224388,0.6240730374547959,0.6021586629642919,0.5732043929220425,0.5404617617706522,0.5110786798248252,0.5209378066310844,0.5478940966377219,0.5626715033153257
0.7066204192886314,0.7062499674806556,0.684254830035027,0.6515907760235637,0.6258642261780378,0.6400494576556515,0.6681337020325582,0.6875963434810729,0.6825478435690248,0.6571038607516035,0.6357936349051869,0.5474783482704805,0.40589942731406115,0.3187142272252066,0.2919017791210322,0.2793528473310819,0.2721090237147685,0.28054213781317033,0.29234589403143707,0.2924695229480382,0.2757596187860304,0.27171207109356565,0.29176405059162974,0.32058014452166916,0.33698581367530356,0.3163595063276116,0.3007426889276625,0.293453268918237,0.299760996570001,0.32536589388435677,0.3475916480787781,0.36021264505780015,0.3477420352067133,0.31671887586148695,0.30160721236182564,0.3241670393528033,0.4802037511806817,0.7460785472229066,0.8428099767752564,0.8442561835435027,0.8168406889562456,0.8016045487440415,0.7975546462473803,0.7035175430696153,0.4990371033307409,0.41531462684804166,0.4196684646338113,0.42218338150124024,0.39155436573168906,0.37108773916756593,0.4271534926943707,0.5684753729100099,0.6360270767568242,0.6460410105918318,0.6649049711577962,0.6907219607582455,0.6964251397342399,0.6683280678718344,0.6239844064737758,0.520066096176071,0.38098483370299063,0.32195305322346296,0.31296754361888424,0.30143099794866707,0.27705830050988556,0.2737615930685958,0.294883328939434,0.30793510403728097,0.2820544215688666,0.24461384395161231,0.23950329067592205,0.26058000658309904,0.3024280813257312,0.32390710697472935,0.3287433011447559,0.3908231469886316,0.507013999828855,0.5365393642266925,0.5162090954266347,0.5006847202041306,0.5087804659464515,0.5153407349445976,0.4978353514360991,0.4817041465268861,0.495513676351695,0.5245001241728936,0.5154982322457264,0.49599799249476534,0.5147775271965389,0.5713708966567081,0.6088420088039271,0.6299478931104613,0.6297611627351907,0.6046275513091114,0.5873366831984571,0.5637609634401766,0.5241772885302767,0.5138112964878043,0.5343800249347648,0.5488155248413047
0.716127744580265,0.7080736818561515,0.6842547028163632,0.6505974712619743,0.6213981511840782,0.632274138507542,0.6596005216579819,0.6856619494342244,0.7042584135403913,0.7070644516782503,0.699356967829853,0.618978717748863,0.4232408419917029,0.3064385166394217,0.293327958862873,0.30775939715823614,0.3165730593128473,0.3049634836789035,0.2896880460321339,0.2697613719504849,0.244967307738467,0.23756512396359586,0.2569556833856786,0.2894545287965055,0.32210973808062393,0.3261279007090964,0.31070503566926344,0.29788477451810275,0.31008186257326886,0.34075331923361424,0.3554693026158601,0.36195084870252864,0.3574092163787301,0.3334357161054496,0.31088952864110597,0.3757491859080026,0.6440453974016477,0.8175887434580689,0.8425059579908565,0.8221423844754123,0.7980739880409425,0.8044097746480738,0.8255461011077688,0.7757467811845369,0.5673239218570966,0.42720243852949036,0.4008357076627348,0.3955993720840656,0.376953287810895,0.3750011610552322,0.40873744399750533,0.49603087674618274,0.6117153866138453,0.6456841754237387,0.664895575109173,0.6858847640169479,0.6804728308189323,0.6478491798921436,0.5664637118837881,0.3759836388340323,0.2933888861148012,0.30285973822909773,0.3094230716993806,0.29769135592789264,0.2698507788429221,0.2632423135290107,0.2835776778707465,0.29540885415172186,0.27110938009118646,0.24412370350455848,0.25132243686114536,0.2767802529781323,0.30592209495640077,0.31497925484835665,0.3147591227504743,0.3453766165945165,0.40847977266090707,0.4142588590460745,0.3902667232599638,0.37374445707008885,0.3783673232834105,0.38161583602831406,0.3633292823969852,0.34928397113715537,0.38422292323558327,0.46348210475188917,0.4720626669958859,0.4527013962824733,0.4692624538764424,0.5237595868345528,0.5612255968453469,0.5751544702762361,0.5646541262129717,0.5639226533056783,0.5761956014104768,0.5757957398312691,0.546625691637632,0.5293133373240695,0.5456850561151465,0.557816291118618
0.7155761840591393,0.7079678806314429,0.6842549428181908,0.6524722191343268,0.6298275592575034,0.6469540956268272,0.6757641542229026,0.7001396870173093,0.7100602627856564,0.7009309033388182,0.6949603092961248,0.6645594905850203,0.5334227584436153,0.34080950878957456,0.295497152526801,0.3209689086041493,0.33156717202525243,0.29075469772216167,0.25439812517535226,0.22307436369350564,0.1848518185894351,0.15033618383740988,0.16008677595801302,0.192226739602661,0.2390463595203702,0.29506351418608034,0.31425467564642673,0.30436988670050097,0.3082760744784254,0.33001295283233223,0.3348212123457446,0.33263797370948656,0.34117097350458,0.3320758849219293,0.3028082013604111,0.35045340298861966,0.6209732618511441,0.7924077069585231,0.8095131434169398,0.7816259338683509,0.763055067121831,0.7835889303627426,0.8123189392314173,0.8123584780334412,0.7106169542571921,0.5235754548905396,0.4203821333309157,0.3936380687031453,0.3794986664785725,0.38657159054568924,0.4130147529169488,0.47908692365300276,0.6067954830570357,0.6460497343776826,0.664856665377174,0.6856654468243439,0.6812492776431791,0.6376376228781935,0.5188120678407275,0.3280807634231919,0.2709763695215297,0.2761223104030601,0.2782073993815787,0.2683915094880617,0.24710580732917395,0.24674789931869115,0.2685669365177116,0.28183738615607823,0.26567949828004445,0.2512128894845127,0.26660595366944134,0.2899127847836622,0.2969185698331699,0.2886276519846541,0.3011003785397639,0.34034672719720904,0.3723929199920681,0.36850404632861294,0.34487473172150834,0.3302218990453598,0.3413994213619349,0.35089848731244777,0.3340910250204371,0.32101173513097475,0.3454930295679815,0.3846561270788545,0.37806867328015875,0.35070194365695273,0.3419745948001418,0.37236976471861044,0.40431723714123896,0.41763781200933303,0.42334548569997044,0.48474346411137503,0.5502075570860325,0.5744183678247201,0.5589115267015751,0.5448992555043021,0.5606957880175328,0.5729608173350558
0.705642727280613,0.7072421985516509,0.686205974950101,0.6579561891803702,0.6456824722537956,0.6718311819086036,0.7022274973640403,0.7205070259818992,0.7106616165015072,0.6829130988098108,0.6734926707263241,0.6625162481148879,0.5833382683837822,0.3902156682954044,0.2842611461456702,0.2866519776074527,0.2826494441082,0.2052539956786692,0.15580492690702474,0.12509957628070983,0.10119091821506343,0.10269064133232303,0.12429391656231192,0.15399272923437146,0.1822802656821585,0.21060360839346537,0.26270327084496625,0.2794081976177942,0.2795334178940186,0.291425484704538,0.28711211690054,0.270342193238393,0.28327863038044726,0.28458418015990106,0.26091523955708185,0.2631389659322988,0.40156511765538627,0.6369134022011056,0.7526523376048802,0.7532157951987597,0.7391737590084329,0.761156087232469,0.7904448561110806,0.8131002656138726,0.8024563385186129,0.6856046947758341,0.49075815004671575,0.415585949389619,0.3901596283496175,0.38934368346192283,0.4129927196687711,0.46830024877266024,0.5779948951937719,0.6348764411851661,0.6623206420486145,0.6850260264469226,0.6737375545421211,0.5675995215782699,0.39877630883785703,0.2996119316892791,0.2671638327431223,0.2537880129623618,0.2507425443677461,0.24441428508853522,0.2350302758464774,0.24557507660483924,0.26949100706970297,0.2819551932463607,0.2648114209691166,0.2500438077210313,0.26567732946437683,0.28661256512115096,0.2876846123421394,0.28488015075225126,0.3091866737135815,0.3378943138522804,0.36379176007836456,0.3653970705945204,0.34472643584882595,0.33326743283719784,0.3525272984191871,0.3693389039620853,0.3546281959964747,0.34196122284790886,0.3587610712046252,0.3739958666681039,0.35862931037520496,0.3248912314037183,0.2950457023359931,0.30485853822704717,0.33144251463526353,0.34698443244839516,0.3488332299912441,0.3925891347779672,0.4976131925647568,0.561162604876933,0.5559060584076265,0.5438143960330148,0.5596978605917445,0.574452164012479
0.7085182401189765,0.716409555340763,0.7029895040044746,0.6848400088796577,0.6831526699314079,0.7085748943338355,0.7318826618442497,0.7408882560977896,0.7197025897750815,0.6863887292547264,0.6764337718577311,0.6658283803750504,0.605128867275644,0.4309689857295673,0.2301497894288592,0.1876594440828155,0.18306172050095232,0.13580542200595952,0.10400191564334876,0.08705224304245801,0.08652005917062933,0.10641199186316347,0.12168135480331665,0.13895597307298851,0.15723117746989385,0.15731738962440958,0.17667857130469047,0.21915359992013403,0.2325203361800441,0.23909103243889362,0.23326154792937587,0.2288290758684543,0.25296191809518087,0.2648121861795596,0.24651270153335123,0.22440934025912013,0.2405473705047691,0.3707872890758218,0.5913928562319799,0.7129244612764924,0.7449643540081496,0.7709845738133297,0.7931124617478351,0.810455345409502,0.814916795750374,0.7443640000670209,0.5509296860770927,0.4324074999345411,0.3903059337346642,0.38919825343919834,0.41200941606306324,0.44511859484549554,0.5057201273348791,0.5852395307177825,0.618009906936289,0.6367197356333504,0.6112145961041298,0.4392760252837847,0.33640722713783167,0.31015853623814155,0.2719114638938153,0.23126289425701713,0.22076738503074256,0.22221824851131047,0.23639237907027807,0.2638294043788871,0.2856320562610587,0.2881384959140896,0.2572634367107278,0.23465923139315925,0.249526131948925,0.2741254452550613,0.2926582336355759,0.31168633268471635,0.3308882953340727,0.3481961515832098,0.36668529494731755,0.370458599164108,0.3618164539316935,0.3579916777858695,0.3654134723195991,0.3660116198310813,0.3519878695676702,0.347349177573005,0.3707705992030944,0.38628075981803855,0.3700375836388132,0.3336291510626355,0.2908736121043659,0.2828025769426599,0.299018843381907,0.3162810131608417,0.3299158758171687,0.3483998725179125,0.4078948841842602,0.48842457250038673,0.5046460550301509,0.5202456554919199,0.5420495063960322,0.554981118104876
0.7110604110012015,0.7162910732278784,0.7120688381442986,0.7063076036820373,0.7082333626995048,0.7197273853073081,0.7286268117675743,0.7303980233917198,0.7177717013355718,0.7010396019791827,0.695167441115612,0.6572586261003632,0.49882868226910926,0.26429958495188943,0.1520786055809512,0.1461010893077565,0.13927770308577175,0.10947738560324777,0.09398890429232565,0.09591171473172833,0.11497512254944697,0.1278412523014137,0.120625733635711,0.11818104668389967,0.13444009775610188,0.14100486787330502,0.14842451200374412,0.20242167703633404,0.2328766823870033,0.24250743763127247,0.23075624041356005,0.2242399923489224,0.24645283937011225,0.26193691812383213,0.24583775428372523,0.2146607319805251,0.1896412274565964,0.22195911659450543,0.3694186438786771,0.6141945458137068,0.764386162506201,0.8039602845729171,0.8123901203175414,0.815393478071589,0.8060162766297925,0.7737299620481399,0.6754107895767354,0.50656094036834,0.39986119472499193,0.3904143687472195,0.41879400548706575,0.4530119665390892,0.48923003498894985,0.5051729640929602,0.4988582620378946,0.5085366451207888,0.5171318368332177,0.38538724335720353,0.3227205069834209,0.3172240469784402,0.28297137752702806,0.23663679587851777,0.22350946691131202,0.22947837736701573,0.2536016139039954,0.28157910134887304,0.2936809455672382,0.284344550764454,0.24592290738087974,0.2248424686999092,0.24507967866303554,0.2834493983466937,0.3191851423799602,0.3376592607910353,0.355388754336849,0.36974989756076665,0.3687863342305219,0.3637560874203486,0.37140906777476873,0.3801571908245048,0.3696803006181678,0.34530397083854286,0.33263352539634317,0.3388444545516929,0.3663458588371238,0.3773152532825431,0.3587203088054618,0.32778355058526604,0.29831212189292516,0.2939618351707419,0.30123354893118703,0.31598445827233335,0.34223580269830617,0.35343091159362167,0.354533239742061,0.3652377048160518,0.3843546811512245,0.46358333182247513,0.5214456670709327,0.5348319973286946
0.6960080923931462,0.6963433891354303,0.6961823663266766,0.6959588908923848,0.6961534895109287,0.6967636294142288,0.6971792825141914,0.697194183934734,0.6964196805224324,0.6953969363196479,0.6898095716063111,0.5860537307937541,0.29093219210653054,0.13387557363453179,0.12467134653207546,0.14322568451133416,0.14033409323386115,0.11863025150128093,0.11040075281011447,0.11978820945175095,0.14068885471915804,0.14132160868739685,0.12007836744433248,0.10715641150030858,0.12275739966746091,0.13749602161489666,0.14780784452699525,0.20542971665681548,0.24599740207734183,0.2605309114749197,0.2448774431208267,0.23182535762895487,0.2477868022382818,0.2616431852635629,0.24583315273833548,0.21412573491014525,0.19157518418567968,0.2125330498874518,0.2950720341145301,0.5118186815843195,0.7472129731065424,0.8068951872220268,0.8092349032042798,0.8086863543282252,0.800949342284321,0.7916308259248941,0.7675588868886206,0.6511785549613441,0.4534984447414298,0.40494869743045,0.4400992473052757,0.47741003039425944,0.5011733654534262,0.48320046224986113,0.45489683214034904,0.43436418794576853,0.4267345631958797,0.38251838343420697,0.31280149724517126,0.3001467930876272,0.2901740039761723,0.26375541391008395,0.254683483551173,0.25720493819808565,0.26616448786353675,0.2749265944281696,0.2772443411706811,0.2664272941039213,0.24109301944682693,0.24048987663628688,0.27967612928941976,0.32725582213397897,0.33867609069892946,0.3370476243186148,0.3548199115607056,0.3682919584055936,0.3534906387308878,0.3403048875579795,0.355792708213087,0.3749838474044761,0.36814436491822805,0.3430346908817252,0.33405962016677465,0.3436346414337119,0.36490546491241066,0.3654547395954093,0.34371051218604654,0.3201722803363761,0.31346277620887364,0.32606316831206883,0.33213452127074805,0.34211601119429436,0.36344207579361937,0.3640918295314183,0.34322130647608257,0.3220154311861696,0.3268846735768861,0.39101880377173237,0.4857395620564464,0.5294867427890273
0.6709685513151722,0.6708764445639511,0.6702233135122393,0.6697834209578057,0.6711720888458337,0.6730457840118647,0.6735600616750969,0.6736343527861365,0.6735194664977187,0.6716436070425964,0.642701632198351,0.4785498498405875,0.1914043284513911,0.10333506128600228,0.1205560197690364,0.14352397686354734,0.15082374425799178,0.13988272816581016,0.1350034375657434,0.1424622910866698,0.15381687309836944,0.14428360637521348,0.12005325060581767,0.10665195470574235,0.12247021451382278,0.14265001218379986,0.16253027774850445,0.21093985221038794,0.24702857247748447,0.2616504119097115,0.24583616767322627,0.23201814916228858,0.2464107508609256,0.2594225364575347,0.24393440987787102,0.21632985038187522,0.20709803177825864,0.2605965903327767,0.41786277856655235,0.6542308356398197,0.7721580043422973,0.7741606110682946,0.7762451371348504,0.7838351445454679,0.7978598575376296,0.8082834392218393,0.7915037313509943,0.6817835178093747,0.4867909386615805,0.4293823899260969,0.4523628781724047,0.4838235888647817,0.5023616079720372,0.4819424062534473,0.4524804583337285,0.42132797834143265,0.3979737668788826,0.38257077842105713,0.3188992275632378,0.29032584786815163,0.29053803414590096,0.2823350834273757,0.2783237606488993,0.27603538648310166,0.26605143851359475,0.25566316822756585,0.25265098580581036,0.2471010454506645,0.245451200374385,0.27874574325278534,0.33593436048623004,0.3649903746063429,0.34354162207873185,0.3201854808542046,0.33315089939437265,0.3458384092876953,0.32947523471212,0.31545191433524694,0.33125368383025733,0.3563851537952384,0.36851637091731637,0.36085759725665656,0.35571098279451935,0.36263186510896295,0.37548674073314275,0.36822578784322346,0.34466068454330767,0.3238760324964484,0.3269445019612273,0.3490977766761741,0.3576872098097762,0.364730926121231,0.3749259839573559,0.3647339113337701,0.3408395199699405,0.3214072406571971,0.32769109174424943,0.36228544967253035,0.42118162269953113,0.4892611987354806
0.6628813869302986,0.6615879932152224,0.6516685867142591,0.6408852841062598,0.6523524155672902,0.6716737982630957,0.677163168917668,0.679840006348764,0.6837372458534079,0.6743792199893108,0.5932171552061318,0.35732454636762806,0.18723115181212088,0.11254780112002977,0.1093333194021267,0.12542275445544138,0.13707798717453956,0.14271180716373927,0.14886090881687442,0.16087524312278786,0.16712346941870931,0.14747736649411863,0.12005325185081628,0.10665648800895461,0.1231860334495703,0.1578543210300948,0.2046852252136356,0.22614003700191235,0.24774287981475376,0.26165487440411245,0.24583551376763166,0.2277147549042663,0.23070522722100822,0.23841682430229041,0.22779496909824595,0.21657383595591795,0.23984244071205785,0.3651842759398068,0.6382016051088898,0.7861275466209936,0.7911556673712654,0.7584111026048808,0.7461902520811334,0.7464624112925125,0.7658273202143857,0.7743492041117241,0.7069055189106322,0.566892780241214,0.47282099411551953,0.44834837233086267,0.45396559762593525,0.47131635821094175,0.48877140074551917,0.4780304954247935,0.45244997056897596,0.4260566204229145,0.4139952132928486,0.420243130794392,0.39024177740117477,0.3214737074793361,0.2795593613653669,0.27071576111424833,0.27572000701177757,0.28071993159590114,0.27155740546387325,0.2511388076944585,0.23912835951296016,0.23437944556537216,0.2576260653283172,0.3195196778865468,0.3678821624929625,0.383790695397869,0.35897700174777836,0.33016698582373016,0.33577825426853125,0.3404170709500274,0.3169983061799964,0.3014955165634116,0.3177402230749091,0.3464906173596343,0.36763285126781076,0.3629940855154952,0.35244238104915226,0.3554748567590674,0.3758212658414802,0.3809530499229392,0.36112245943641275,0.3376023056755027,0.3347488733777961,0.3568279268989524,0.37152107384299843,0.37883427169417944,0.3725267770538291,0.3469218346128425,0.3246959890046772,0.3172435169862463,0.33994890360849295,0.36953110217351287,0.38204294240452935,0.3937568623036491
0.7180281259326625,0.7147714594899721,0.689234608034117,0.6556474712143243,0.6680316826967172,0.7007975186498291,0.7090362508157222,0.7177990840668436,0.7369086640335112,0.727853390427235,0.6649019522791791,0.5200589957219263,0.4052299400789337,0.2513504618032851,0.2024475754840273,0.1829450485001196,0.13020643795466041,0.12443991637327184,0.14180956544830448,0.1622965352558814,0.1727696924059452,0.14960481720601415,0.12008070743270643,0.10671719445969002,0.12463924846373226,0.1752085431599504,0.24841837441313008,0.24281472399911683,0.24893880912399116,0.2616840948361945,0.24583499564159464,0.22287800717804016,0.21480770435428231,0.22091903417194406,0.21980169459124915,0.22880838316519794,0.29402371254082593,0.468520197783878,0.718457400686286,0.7938932310792248,0.786952893329016,0.7702116114301871,0.751432368030051,0.7305523519352065,0.7203929626292973,0.6883539851709845,0.5559405857389175,0.48593157811502663,0.48091586905709865,0.46872914998963644,0.4530240674734077,0.4505795710833066,0.46680962454707753,0.47175847318267433,0.4524514654489419,0.4360479027674907,0.44759112591953887,0.4666565779903482,0.4532628788072486,0.3887169746902263,0.28962818219616426,0.24793698132284595,0.2573896813302093,0.2793369219875118,0.2910127108021786,0.2732415211994185,0.2541224446600275,0.2511081764689836,0.27785048348700814,0.3255871159239397,0.36069573397292765,0.3802557913872513,0.3753698460598981,0.35689514875209755,0.35513259794807045,0.3489216687927207,0.3214202645072898,0.3104508700618705,0.3290457459936103,0.3580235692510566,0.3741117092618903,0.3557062866935691,0.33205862667655556,0.3285319807777366,0.3597989472398719,0.3837712528953513,0.3696854981431922,0.34001828905438986,0.32151953008269873,0.33762617733573524,0.360729977751728,0.3743748727092704,0.362200913096424,0.3315221103677711,0.3166474613199195,0.32257618408591116,0.35234254578220386,0.37046767728828095,0.35946556238239646,0.34328289414098845
0.7700491615018936,0.7661350975874233,0.7405407483546026,0.7128987916225271,0.7171335196636125,0.7397073234665552,0.7405707119686094,0.7470299286136949,0.7654726553968996,0.7588072231911407,0.7142182963546502,0.6268668113582021,0.5644219000797001,0.5136952390474839,0.4961588764370032,0.4305362784144459,0.258283941577051,0.2076584286659962,0.2076916900168051,0.18007383921623385,0.17710701627162534,0.15463568693740656,0.12456396222874533,0.1111751631789808,0.1440484440796841,0.24704651036402195,0.35171650428169693,0.29989657614903653,0.26159215186894746,0.2626393052563094,0.24586259405517907,0.22271029252860497,0.21716154503900834,0.23043945701454827,0.23729181208530362,0.2739319912981212,0.42549930102544514,0.645873771767554,0.7516065997787219,0.7630021154496843,0.7743346187215038,0.782745814999656,0.7658545047768279,0.7346798174074085,0.7102098289388228,0.6639388687531079,0.5145208842129044,0.479911455432355,0.49808285622455545,0.4807995224387667,0.45247715279558537,0.4395551237115821,0.4551369967708549,0.46842498507594676,0.4524521482946536,0.4399997677601214,0.45916068902569923,0.47668755781239236,0.4614998177945511,0.41884457219663396,0.3429629167425531,0.27337010367393344,0.27365138483137796,0.30361007265184214,0.3252588361538916,0.30804494833801466,0.28880654556064494,0.287939732915826,0.2895660294498358,0.31577254730257037,0.3459965437255793,0.3689040563841855,0.3736617803553385,0.3596365692863425,0.3537065031776389,0.34413148191070164,0.32286065843200296,0.32231138374900425,0.3440567257652244,0.3734697791585883,0.38797099020576087,0.3632970574150046,0.33293744351958837,0.3221640112647971,0.3460847916851005,0.36753035959100333,0.35352162745093907,0.32194572266435234,0.299881571794506,0.3173434379348716,0.3459928872833213,0.3664493384609183,0.3632084878931007,0.3413249405870399,0.33308452245092,0.3426788921306094,0.3641600529471096,0.3651282646043008,0.3437261308694739,0.3230506188870626
0.7964551491583258,0.7908396722007488,0.7678876820892264,0.7428534614371911,0.7304736782944992,0.7347766827210003,0.7308651678146483,0.7364902359588926,0.7587658308965641,0.7605223123097348,0.733097415975662,0.6781377601877694,0.6204468770949119,0.6186183589796315,0.6229015664353692,0.5917729510614935,0.5126076065906815,0.4886119453240549,0.45122680033220675,0.32073771223465,0.2804154560819368,0.2557880654691589,0.22021242863163326,0.1926962715032955,0.24579467187823967,0.3932529581602636,0.45307953251748107,0.40190055759798704,0.32020679623416687,0.275769395015737,0.24681805376205163,0.22527016597817517,0.2286904426833543,0.2508360983097909,0.2638521411684023,0.3558788315481981,0.61444795889616,0.7450847558327034,0.7489956880723583,0.7399945498411924,0.7619994441813664,0.7813506302750013,0.7668086026327918,0.7379772341903557,0.7216435872913467,0.6816718126434664,0.5335366870279813,0.4977369737752009,0.5081415398827496,0.48302512312526236,0.4524520304823479,0.43908048298453894,0.4550342800865135,0.469534829522129,0.45440237464627237,0.4392555805692634,0.44731107052030483,0.4538571669988187,0.43649750370568907,0.4032081623354951,0.3594352946633309,0.32548647107592055,0.3357225791053845,0.3632477693743446,0.37515743351485364,0.348509482906814,0.3182730714796063,0.2943191786212126,0.2913285517781009,0.3175383634822474,0.3469278859399639,0.36616834066082016,0.35996977266168206,0.3361460367987117,0.3282053830871543,0.32192287620400994,0.3110081228265723,0.3196723836312255,0.3430815064186415,0.37455815103149026,0.39840745952224343,0.38374409701919165,0.356565271581169,0.3405361722061595,0.3438157516369781,0.3453884747648796,0.3270579400310477,0.2988081547269782,0.28653443482017127,0.31268314745521153,0.3430800714368185,0.36618421998118966,0.3735013636598548,0.3625662836084327,0.3576872098097762,0.364730926121231,0.3749259832153281,0.36473378863429634,0.340836261848565,0.31817858543490973
0.8089849114587242,0.7868232113810352,0.7654116671806512,0.7432903254226708,0.7225187211135822,0.7209309361949515,0.7241736874128166,0.7330719771655865,0.7608195348866519,0.7703877330715735,0.7553718260624802,0.7229470476489654,0.6701428501810525,0.6496360838035244,0.6419815763300731,0.6270989310834933,0.6085586450590206,0.6111055092701644,0.607451602351456,0.5714392366329524,0.5609966302450444,0.5356589594838004,0.48483984779005784,0.4113593444411759,0.41878828975815785,0.48414125702977656,0.5001600071273483,0.4866885939942701,0.4390582995745537,0.3377716972655428,0.25945433284299224,0.22587202415609126,0.22722729651210782,0.250212594568698,0.2867469157582767,0.43143019378046454,0.6743194608293543,0.7373996554212092,0.7214054514796059,0.7200097331524025,0.7544959170759444,0.7805190349994557,0.766134160113974,0.7394057193569727,0.7184848868591667,0.6530360886925415,0.5164000775061023,0.48156467813431814,0.49304637231051535,0.47884778130063127,0.4524518646895001,0.43859586742019263,0.4564991011122426,0.47843158271407693,0.47118419286107627,0.4543977352628669,0.4392748279305793,0.42402738424010167,0.4059739219985552,0.37063935636658624,0.32405861601755065,0.3343182783475953,0.3624170971233143,0.38435323121683507,0.3811323020535944,0.3466091579867183,0.3053037995544867,0.27468427371614423,0.3072901968948971,0.34163237261530466,0.3630532013942056,0.3683900752496189,0.3382536834822909,0.3024243178615531,0.2985504272232017,0.3023682090291938,0.3020398351201972,0.3099776091823539,0.32629821177816,0.35032458927726357,0.3764974149713477,0.3804444136867484,0.370719623828884,0.35953222539519875,0.3412088368857464,0.3172562542209586,0.2974029841670951,0.2792534890422782,0.2775661471137961,0.30298837449645605,0.3262971865782699,0.34434466388320534,0.3587116691122016,0.3653210791597327,0.37152107384299843,0.37883427169417944,0.3725267770538291,0.3469218346128425,0.3246951791295966,0.3109124603519401
0.7968610468158683,0.7619419040927848,0.7460579040298423,0.7335683214785435,0.7184974295145267,0.7235682522224469,0.7381426666607939,0.7513639031747412,0.7702822630607215,0.7726351034226988,0.7653767392429611,0.7586423601332286,0.731561886488266,0.668254333126824,0.6311623379904341,0.6126297581146556,0.6118045124200009,0.6300678875622432,0.6410351230132941,0.6492334750990091,0.654057158848977,0.6282349836352095,0.5649878863215088,0.4788841170454159,0.45971450549459336,0.49055680314087835,0.5121493902511871,0.5276803112203897,0.5217032407846618,0.44209048398698475,0.3154026085431001,0.23430051315437295,0.2175751634533345,0.2552095521220679,0.3854121574213077,0.6013007302708049,0.719597272634157,0.7322462117786253,0.724733095198802,0.7328047566021271,0.7667515644949592,0.7826298838122714,0.7502611509985719,0.6915376284577188,0.6426873062513138,0.5363730514814253,0.45687004742182197,0.44125958273585153,0.461545759223699,0.4707514245077584,0.45245132745438527,0.43574572528144817,0.44953394856547924,0.476489380265232,0.48026229169463724,0.4688143534997063,0.4443506003058077,0.42048062433428285,0.40396064896517736,0.36314566658290875,0.3116180282206053,0.3226879600036487,0.3515208321335676,0.3673208514686835,0.35295971903235346,0.3147625056017711,0.26924932853444705,0.2710376125570253,0.32682441738279394,0.3599235977942295,0.37066445651096,0.36205232672229737,0.3213685397147279,0.2928439202556571,0.3018071058044395,0.3180131497631034,0.32129787530994025,0.31530744459724036,0.31721801188087073,0.32338433292007057,0.3326599421749076,0.3468143882999381,0.36044354763125985,0.36675550665950385,0.34775996197259035,0.3152602168569526,0.3006596627483329,0.2948984297761878,0.29682419028377144,0.3083182099113425,0.31721764531230534,0.32124785509204473,0.32630553867911904,0.34141120340919107,0.360729977751728,0.3743748727092704,0.362200913096424,0.3315221103677711,0.3166469874629935,0.3188678922901115
0.7823062243709527,0.7566281082878075,0.74748410012817,0.7397978993274199,0.7266397031265153,0.7338456865167816,0.7535630351702066,0.7663651735453447,0.7688341021867633,0.7558368464667622,0.749735445059533,0.755653765357149,0.7476786905920585,0.6797378523260802,0.6213647643403354,0.5942701598543281,0.5964563049105627,0.6175837847343406,0.6256404083726994,0.6329008561843433,0.6389751889029501,0.5993481461391539,0.5217088205101129,0.46116423896097763,0.4411798415185618,0.466304770617317,0.49659927691482986,0.5253715461439016,0.5382781065527273,0.4998954860516554,0.39908875591848253,0.2497693915868084,0.204953457822451,0.2798758049016535,0.5025286347785718,0.6958380842236338,0.7495020011918001,0.7552733073374346,0.7560997193475717,0.7658197753813558,0.7862167970927869,0.7701639041199394,0.6730944078359118,0.5404940425825858,0.5001784352243914,0.4706103350077425,0.4403688478819988,0.42941102958830324,0.45015038140368624,0.46750345864034915,0.452450205370317,0.4318282518424084,0.4350289809355697,0.4566433320591411,0.46437274169420806,0.46161079535211097,0.4526198700705602,0.44292159972483486,0.4207889464166381,0.35529002998050774,0.30992462287779904,0.31269702020649615,0.3364984453904681,0.349968246062974,0.333429587159444,0.29878717463140503,0.2571782273046697,0.26424695390668645,0.29525811360868437,0.32791169427558803,0.3489661863040409,0.34360145040862655,0.3179788035762556,0.31284051824081105,0.33325523760413733,0.3550014319667777,0.3565558674583396,0.3396815958270988,0.33310675051307287,0.32633438434695805,0.31457836654281224,0.32266598966216653,0.3459803166637382,0.3660832556734046,0.3624321090826949,0.3403628471145591,0.33210779454803074,0.33188671496009436,0.3320821824321708,0.33269236114120093,0.3331067341217956,0.3262406351814231,0.31429953601455296,0.3224288883457145,0.3459928872833213,0.3664493384609183,0.3632084878931007,0.3413249405870399,0.33308449264859763,0.3424526962289771
0.7813729318628273,0.7737996118912658,0.7691612179229221,0.7596061014408431,0.7386456578541443,0.7375664553579957,0.7552727240488187,0.7658644781882076,0.7571420445120798,0.7349206076874684,0.7271239067673549,0.7364152318267413,0.7509628455463031,0.7169153265345765,0.6356489680362785,0.592553254438738,0.5848732210488723,0.5961434017848393,0.6010098923877885,0.6089923416453455,0.6092464154918282,0.549343160385636,0.4932097662513978,0.4546810089909956,0.4295844382378062,0.4440133382321548,0.47206035201289287,0.5040289506707357,0.5278663896053724,0.5094620157355506,0.4194993282906325,0.2291122115094229,0.17194864819948363,0.21577093050793655,0.3564374023040545,0.5784457413663351,0.6766979050431787,0.7499976573871284,0.775281575193862,0.7834422157835732,0.7789118467326217,0.694117026086353,0.5398458782011499,0.45293043302248864,0.4582596899069756,0.47540535119508964,0.4615171119471193,0.44871071779540633,0.4612304263408148,0.47084890797670104,0.4543901170534931,0.43088158558137063,0.42240498090526557,0.43268113609647363,0.4378963185885506,0.44153674772740614,0.4540184419875514,0.4600042085106667,0.4292800818802366,0.36069204222485457,0.31712330187456456,0.3129075382808534,0.333571172034707,0.34665844287712166,0.3302944410380211,0.2958744067242033,0.25427794533818776,0.2544999325045294,0.25652364300471164,0.26545763384700066,0.31063068340220135,0.3235711310548357,0.3200084110338659,0.3355448932778305,0.36070695806014696,0.3821506771097144,0.38307752337550727,0.3651550116786918,0.3576330068359336,0.3475856675604543,0.3265956151137313,0.3260468455800971,0.3469042164111694,0.3694534781227073,0.37593683328723515,0.3637338536629638,0.35763455655669774,0.35691909816360085,0.3561080503115615,0.3557554441342315,0.355733732397314,0.34576347682869046,0.3236443492422065,0.32204487797116843,0.3430800714368185,0.36618421998118966,0.3735013636598548,0.3625662836084327,0.3576872053394279,0.36476225432252496
0.7733690622100792,0.7698816242465935,0.7662138852128944,0.7617878618488274,0.7514762789832474,0.7495047045140534,0.7567222023691077,0.7581836416747864,0.7442537743807323,0.7327302270001246,0.7300009916738683,0.7344747968339831,0.7436188192550757,0.7248442924309473,0.6560578807708323,0.6117863967928087,0.598873723688335,0.5937995308876357,0.5860447647134945,0.5739332004483676,0.5507609786885543,0.5203859161971042,0.5024056518059111,0.4797455763937444,0.44405894135732976,0.43715534230058994,0.45854586365610694,0.48920400522242125,0.5157682025532189,0.5113777533302755,0.4343442184908542,0.243250453885398,0.1760926729440785,0.1867804338541976,0.2254902921155942,0.3094441647906243,0.41078433355168015,0.6014212662386343,0.6752716534627309,0.7054209410683625,0.6727472915770218,0.5410416274212564,0.4476269915371217,0.4240025947541158,0.44700121458460584,0.4753169227577547,0.47536810108781663,0.47189087621524284,0.4809638790371277,0.4842591643757771,0.47113417056369644,0.4484170427344602,0.42148914682873795,0.40892062509796123,0.4079208833905555,0.4184991375247076,0.4544187491550502,0.4698586699035385,0.4200706169384393,0.37305706392165283,0.3291127894407958,0.306747162805299,0.31678738458733524,0.3259309456037058,0.3098604921968529,0.271715414632436,0.2332285300952382,0.23367603045065014,0.23640236590112998,0.23798344915077765,0.27900628811382944,0.3055582151570028,0.3290144586035656,0.36561762660884,0.39036256460661356,0.40615140784251846,0.40474900629615396,0.3842811497697791,0.3708272102127036,0.35976950850581735,0.34904789950942605,0.35239406552409736,0.3627254295000991,0.37504746344184486,0.3843019964942893,0.37966623332595434,0.37082765128707496,0.362063589955326,0.35419695105647653,0.35236487712955084,0.35278574552630987,0.343641844655033,0.32076883640384285,0.31287752118205636,0.3262971865782699,0.34434466388320534,0.3587116691122016,0.3653210791597327,0.37152090098952856,0.3783809843311271
0.7684165823111495,0.7528736891994439,0.7463461740722306,0.7519096875131202,0.7648247036559128,0.7670762340289643,0.754329900184748,0.7166996452305834,0.6697964296593231,0.7184163601393947,0.7449081921961136,0.7432519464891071,0.7311164611874239,0.7224415615402382,0.6978864207746551,0.6529045192756122,0.6390593335473191,0.6189466200502556,0.5817809864429045,0.4996982177821376,0.41585193778223867,0.4478270109782868,0.48550071938468065,0.5014483890415108,0.47456766509870935,0.4541558518259517,0.4698286449793061,0.4925022958409697,0.5027517911757748,0.5001198846761599,0.4420346349340817,0.2651759672823966,0.18397505769250372,0.17086585520209005,0.18467342844984563,0.21208101008136918,0.25236883632010115,0.30896060548416227,0.3574185808910138,0.4647562489186389,0.4825076666898967,0.4421860191852641,0.4225824137840062,0.4165177281476264,0.42507819874795916,0.4479541611187143,0.4650715917226434,0.479536803919309,0.4897307341170282,0.48673051428962394,0.4799602266249973,0.46665676729910405,0.43799716569628455,0.4153324187487629,0.410660639451014,0.420366144673295,0.4490314370895918,0.4486346920253286,0.3983439841501418,0.36821443195240344,0.33452781559623157,0.3084362499283378,0.3077058391968742,0.3102865393532942,0.2899500576709736,0.23700790484856585,0.2123539124558485,0.22032098124919944,0.23781970538992878,0.24031593548257793,0.24910100313572742,0.2826594536778986,0.32758218361588387,0.37031018996868614,0.38709538064733473,0.39588873126498275,0.39799164559936134,0.3803459885368308,0.35900864627456275,0.34808421459292976,0.3599860655913314,0.37543859806155766,0.37026008691882695,0.36440750237798303,0.371972978378292,0.3736327173957786,0.35900734391307443,0.33939353849982823,0.32744426157569495,0.3301455798397025,0.3329172494659385,0.3289272310981711,0.3182266655216178,0.31299600329494087,0.31721764531230534,0.32124785509204473,0.32630553867911904,0.34141120340919107,0.3607292744169196,0.37107144322490304
