0.4865525512292708,0.5006590618088569,0.5200552665483746,0.5222996433344173,0.5220001729909431,0.5211641023545375,0.5207964785701111,0.5211071677278498,0.521075379046682,0.509630784790007,0.4462743068036087,0.3380155724965214,0.31676936476365086,0.3262939843536037,0.31321186556366337,0.28809379667860524,0.2546278692207977,0.24734644887255675,0.27249763741421595,0.2726780855761286,0.20963864079744382,0.15065236798925014,0.12298640881521614,0.12411730941639448,0.1297737135256545,0.15408308986074923,0.18822891727275917,0.21795734985573847,0.252129642430663,0.2598201970720627,0.23332914397732366,0.20801635383247938,0.20788526755783904,0.26712695480832727,0.3118577587967384,0.31914761265378044,0.32504976809798064,0.3361543497338618,0.34331674559858694,0.34416409342435256,0.3441694086685504,0.3438886111870135,0.3438576868071879,0.34386506884244333,0.33798726818409813,0.3267316077656397,0.32468811497568834,0.3361584270424927,0.3448088216971637,0.35089222991095304,0.3652202357156267,0.422841783012889,0.5092883569366117,0.519055637625554,0.4587533644387926,0.4291529691945128,0.415130058471628,0.38823551820944896,0.3821111409297902,0.4041838737200427,0.4220266273778668,0.41790808274296176,0.4049992008402671,0.4035686379566516,0.4041798783734168,0.405295063448319,0.405970335431585,0.4070119220304961,0.42001048008353525,0.42974744393247577,0.4202517618075253,0.3984341043413802,0.3858841153030673,0.3997387675310929,0.41840185954121006,0.4199568721812199,0.41928752119180385,0.40669696861540827,0.3379099271149007,0.26068824650284256,0.35360328239578526,0.4218759817820014,0.4300467293327185,0.42933494598477573,0.41961010795980425,0.4180630311104998,0.4356218882703324,0.4488140850373456,0.41719306362371805,0.3202175692783268,0.24599564355077314,0.1902817772219971,0.16704459755186069,0.18874671486991446,0.22116973500337905,0.2254599723412838,0.22386500328802064,0.23206036571516842,0.23886335764667704,0.23845864794475952
0.5087270541384543,0.5247111035778845,0.547728390832218,0.5555551005795325,0.5515260322287405,0.5386943294003332,0.5335503069951857,0.5395961204213632,0.5478089232336545,0.5457125978744123,0.49133265748454186,0.3594868437427401,0.32148338850041697,0.3343912073236213,0.3366837961867179,0.3244944997722148,0.29515183895973734,0.2760860278918831,0.2824033731069858,0.2628523687081298,0.1845293494744235,0.11965692072278511,0.08922179808147696,0.09232719371002174,0.08994444343822466,0.10323879381583836,0.15053405331892744,0.1839760124809204,0.22242484873820967,0.24629002285055154,0.23228354620876154,0.2081315771056833,0.20882307388226737,0.2654224823854506,0.28971905618190047,0.2859401626360164,0.29519171672471906,0.3266276089742507,0.3539806826308097,0.3620878501131858,0.36218812896755587,0.3568902565434302,0.35630679710653673,0.3623273679221551,0.37066259804116786,0.3601011830338098,0.3585358858519132,0.3719364707456547,0.38890597354455786,0.414092205509221,0.4679044241333882,0.5492814715342678,0.6013588150251858,0.6183915469440331,0.5926944981877384,0.5253903289757229,0.4707040884913655,0.41313207893375103,0.3894221189183876,0.3984886292262266,0.40835644546853783,0.4087403109830609,0.40395496620682136,0.4037817700102653,0.41204046293047325,0.42710813391834357,0.436231384061267,0.4375245381109265,0.44465238399439605,0.44790237471037075,0.4345522640508767,0.41718812827417084,0.4123188663971277,0.42652416213301075,0.43751743270901094,0.4323619070498913,0.42820972597345863,0.4328969677690986,0.40579330982945183,0.3466457159287909,0.4281438364997133,0.44813832997956093,0.4318382198873544,0.43004604419907005,0.4270153608039491,0.4197785751803701,0.4020559755009014,0.3752716356104631,0.29193502977682495,0.21964381475225525,0.18336425886319505,0.1686128516044294,0.1636460870964293,0.1813104143657825,0.1958826535098307,0.19176277064894992,0.18490307848023674,0.20637170816767172,0.22898009191780555,0.23605155998065622
0.5215016214444961,0.5242698041990126,0.543721599717411,0.5609985096648062,0.5545627577498282,0.5280758602812613,0.5191004010747254,0.5357212552445576,0.5578895360539516,0.5569731270965517,0.4897677904000325,0.34445043095770755,0.28778592473973186,0.29973778882633395,0.3247850324375875,0.33579814093617205,0.32288000148729173,0.29876711191011107,0.2753753571112585,0.22213668915155513,0.16578848279155461,0.10861697082787694,0.08249676227213487,0.09662210404485211,0.1042955574058286,0.10887250702154164,0.14256598360665432,0.17368681961811813,0.2092049857312247,0.23792873853948476,0.23149110812960233,0.2086353190755521,0.21618460294899505,0.27760668064621435,0.29493131328360134,0.2792547976646621,0.27246250306348246,0.2993043465807761,0.33794587685612093,0.3572017116740073,0.357471485276493,0.34321856929806127,0.3646861677745189,0.4040355572849342,0.42322430509814973,0.4199089312367359,0.4215497427523971,0.44314399648891856,0.47836566562152494,0.5179898108401502,0.5784074301547504,0.6132899767465492,0.6299720096907626,0.6436808958308546,0.6419791803077194,0.6173092232680191,0.5787931490702951,0.4878739220560494,0.411772319104475,0.388931985328877,0.3789009813113401,0.37848043683873894,0.38285836489617736,0.38410061432865517,0.39751167137659504,0.4219798241334054,0.43682397220027247,0.4387954700881811,0.44313911803630657,0.44578598131889,0.43955750252863457,0.4330373995467574,0.437165068181998,0.44318170680549995,0.4351487292244757,0.41740064368869034,0.40191771625354716,0.41239800820770306,0.4310445421763932,0.436656263825709,0.4775665655376711,0.4725528648834086,0.4517084280213612,0.44822022750145063,0.43815922728263823,0.3779193195472277,0.27801605792874406,0.22770046887277087,0.18244937236164666,0.16664369112988095,0.17654822228072775,0.18774504349311347,0.19643284110249884,0.20430717556674494,0.19844625877481872,0.19053346661859194,0.1735576068469677,0.18148052369946369,0.2062413939576258,0.22523927427185167
0.5057700092240895,0.49602047636059177,0.5105236275389518,0.5334573241780579,0.5306682364805184,0.5053392309535081,0.4996853242936636,0.522952567934552,0.5527753852221613,0.5506517586000832,0.47522091927673576,0.3233653104797642,0.2514426761832793,0.2536745556444332,0.2866110031547328,0.3110997673804389,0.3102068929925301,0.2822628763427807,0.2375403103464824,0.18372325773771989,0.15183831621279542,0.11840771149204557,0.10852830428074212,0.1303861695184207,0.1456966868315214,0.14078644467102716,0.1456468977992465,0.18081945660955906,0.2205084772426612,0.24186091924859843,0.23163720435112273,0.20932223685805573,0.22845180868036874,0.3064389023082174,0.3283025478359665,0.3057885189265975,0.27928407623318086,0.2847795350745047,0.31883953048733127,0.34388013913181675,0.3487621509643225,0.3652004702642594,0.39664559212625183,0.4412447568375947,0.47248055827089597,0.4859972013335616,0.5018609517270178,0.5391734997019088,0.5821733352908106,0.6013339000740239,0.6142047236998129,0.6190875135042753,0.6255104306135071,0.6319151598274565,0.6286287286443144,0.6176577042901021,0.6085463915686811,0.5774395773252756,0.49097752371615644,0.39850529481617813,0.36496800919521966,0.367785045741334,0.38033268894580996,0.3820896990861853,0.3884079117208969,0.3999375853761931,0.40706082167062974,0.4101306615048707,0.4175057258191391,0.4213171668742973,0.42142515683574183,0.42194122448688326,0.43392493554609607,0.43966057731655495,0.4231171114638175,0.39784447385815036,0.3705554100720852,0.3746101005355547,0.4076399830309303,0.43942549667089903,0.473350190734642,0.46915955685913985,0.44123723932622216,0.4103684818074881,0.3808320903366823,0.2925179751236572,0.21660442329258733,0.17957521115600178,0.15026929051241328,0.15247212962055973,0.1842415503652694,0.21002795623697992,0.23070809350461496,0.24035164364872852,0.22984803412421353,0.22516850681002756,0.20158978714813414,0.17653463385293833,0.18748014185229347,0.21266821185372245
0.4796583069756354,0.46952310231431127,0.4841229336126289,0.5077778990111546,0.5110126899128854,0.4957581091251735,0.49506062233374304,0.5180131551494774,0.5351747497700193,0.4980859665573031,0.41912902311335876,0.29401598113200894,0.2294137317769049,0.2222196441109382,0.24869112618219294,0.27330106754947736,0.273654167433832,0.2367666836342176,0.1740853883145373,0.14679266344038172,0.1406138346092663,0.13058570557259022,0.13484222814152105,0.15786709810256383,0.17325930663351408,0.16422081355806642,0.1523745021490369,0.17494160957001129,0.22854007594786901,0.248779973673859,0.23312147703575128,0.2110292004737139,0.23627595766313203,0.3248219045894064,0.35284235229458466,0.33031752693513716,0.2968530191376532,0.2898736847832526,0.3165097041323508,0.3493507757739606,0.3876441845901386,0.4099648846320299,0.4444883294349939,0.4880129899728092,0.5223005136874352,0.5464464293173049,0.5749057098683987,0.6032333768887171,0.6132935059621754,0.6138620245026658,0.6135048877164229,0.6135661028164952,0.6156754034720453,0.6181656576999075,0.6153444149056635,0.6072728440420907,0.6065312008060766,0.6125792460863411,0.5783043434256989,0.4762198487867624,0.3891318539215833,0.3851824381379316,0.40311697150030684,0.4046778480683425,0.3993876758763497,0.3892793606167242,0.3837818083942276,0.3876386655586882,0.39512433566070904,0.39768366426088164,0.39782919566805564,0.3990438337858887,0.41621518517115863,0.43090097577773,0.4197869083180751,0.39482031746652974,0.36157035206288907,0.35446436032047746,0.38117709473314193,0.41348812268897045,0.4469511907624857,0.4325596812834457,0.3602881590567895,0.2710094198352443,0.2527104176330419,0.24400717789982415,0.22553413218994717,0.19993857817574315,0.16687135887097826,0.15991322132367103,0.18612508926083718,0.21198103277603003,0.23832394632887052,0.2582333043947165,0.2542313525992325,0.25175874981472857,0.22488575591562823,0.18430292833830117,0.1862963711314457,0.21135431448095052
0.4459870628374269,0.4451099038063049,0.46798701822713934,0.49196666371871206,0.49670863176777025,0.47527868130776996,0.44414752746213526,0.4530932197597247,0.4349436021679915,0.3222857697830413,0.2491306128346344,0.21131261309986854,0.19231430007434291,0.18178972754798134,0.19258553808282072,0.21079908645504172,0.22310041227317481,0.2193630463685577,0.19295381287766514,0.16321856181784664,0.15588278434334105,0.15537581410061918,0.1679797533489271,0.18598178729504214,0.19743474762891927,0.18610900383811518,0.1667095570059984,0.17344684891339893,0.21943990800245264,0.24911467243285385,0.2447125469576466,0.22893385872198327,0.25040818512065666,0.3268791991369642,0.35007467021908417,0.33308362706611244,0.30364936127212894,0.2902082009508933,0.31021711686549075,0.372035704480779,0.41729496301821656,0.45538358105892884,0.49780893457091235,0.542113292450042,0.5788963020273268,0.6002702880590478,0.6130171943439435,0.6142019128564389,0.6142019128564389,0.6142019128564389,0.6142019128564389,0.6142019128564389,0.6142019128564389,0.6138921677947844,0.6108773014340767,0.6057144441314186,0.6067451689060659,0.618078518600542,0.6157044161896972,0.5638362115842741,0.47316190154791293,0.4298718048566208,0.425976033465022,0.42342612319398526,0.4174433928132592,0.39828674558550137,0.3862610872425802,0.3925143215057376,0.39683730354625235,0.39763315843103736,0.39773765534115957,0.3983822724076366,0.4040423318394428,0.4062237430025904,0.3979051511262289,0.3850968841242507,0.35983035640799765,0.34395171658985646,0.3543703100893653,0.37814389948714633,0.4042430063951008,0.35780930559639074,0.248737751705301,0.18574655076578417,0.19016428028403828,0.22020731539091518,0.2322121830358582,0.2213407054349518,0.2001458204467004,0.1871616704657401,0.1939592375899183,0.20597622989335868,0.22051307711195156,0.2422001908177136,0.2498597605436359,0.254525851813569,0.23180386717876433,0.18885634801344742,0.18672990809725526,0.21126845267086772
0.4348760249214109,0.4411269992253677,0.4729513977339444,0.4852949264075633,0.45204282860952893,0.3906935530065746,0.29205000160874284,0.27754852644233197,0.2651667995776029,0.20286939988717947,0.17210547375398905,0.1852986561001472,0.2030725725807552,0.19557065234813736,0.18819131899557365,0.1952798009931204,0.21974043031249826,0.24577453204685595,0.24478945376961853,0.22216628055764318,0.20333799857729132,0.1825424809668315,0.17913789040314937,0.18263756114410998,0.190950658472191,0.18385430158815225,0.16196965226168508,0.1481833119577124,0.16763702685068887,0.22301236366686966,0.24742252453971286,0.24359658107033194,0.257764284581263,0.31161923408173825,0.32555879702534335,0.31886683597276294,0.30570676161793126,0.29729891254452123,0.3449281955722443,0.39916919271228796,0.44726893686465286,0.4963561365322433,0.5468392625529932,0.5919610645138039,0.6134831773169434,0.6142019128564389,0.6142019128564389,0.6142019128564389,0.6142019128564389,0.6142019128564389,0.6142019128564389,0.6142019128564389,0.6142019128564389,0.6142019128564389,0.6142019128564389,0.6133526309447322,0.6140535615368552,0.6211393188184405,0.6207675295206565,0.6034757879616831,0.5651549645044597,0.5307707797717356,0.4637775735138635,0.4267738806233653,0.4239104865348704,0.4133926936810613,0.4020435048771995,0.40746180168665247,0.4099898162828974,0.4102066027679891,0.4117437478287959,0.41504947692527705,0.40091561684018495,0.3797769179294634,0.3758079589019513,0.38519367365812063,0.3834512129494012,0.36817486172044034,0.35143896482223275,0.3369048678483972,0.33571311008058163,0.26969921442964123,0.2059679555569891,0.17562603578346303,0.16552073635942213,0.18317534220170487,0.2104138228537461,0.2231959930736726,0.23221437766102207,0.22503603546398498,0.20720933303287756,0.19500922978778368,0.18364244805718294,0.19968647521579036,0.22281690767300666,0.23993693235497182,0.22918160149205857,0.19110283185189342,0.1871063533230955,0.21089579266143704
0.43777288690750715,0.40598377991090795,0.4246711427595836,0.4132085560178076,0.31273169315161303,0.24417329089737164,0.20443912688525268,0.21297617479352884,0.20952622924596268,0.18253140310334753,0.17599508084285545,0.20350459747653793,0.23562262962754243,0.23614467312704807,0.22219113828868725,0.2224354684503843,0.24379987000370146,0.26557865882492626,0.2585311466994776,0.2345751904874466,0.21490733028414166,0.20091697490216295,0.17612063042216997,0.15524441286842627,0.16236596711586507,0.1662993895533012,0.14854320693073056,0.12507473910354727,0.12688434610672922,0.18238158813150743,0.22478436748237343,0.23174518780826772,0.24948269764072536,0.30376917405294906,0.3205935453411545,0.3207514901370772,0.31980577342280236,0.3440113052968674,0.394150035189791,0.44270699602549385,0.4867602548176133,0.5374883215593185,0.5901390113079479,0.6142019128564389,0.6142019128564389,0.6142019128564389,0.6142019128564389,0.6142019128564389,0.6142019128564389,0.6142019128564389,0.6142019128564389,0.6142019128564389,0.6142019128564389,0.6142019128564389,0.6142019128564389,0.6142019128564389,0.6142019128564389,0.6195939013699725,0.6191889986362611,0.6104872518077787,0.5904704315527459,0.574302084606386,0.5325761007499885,0.4313778169112712,0.40901367533990374,0.4025907065457337,0.389953889186455,0.39033758775654476,0.39101688449436883,0.3912482337275529,0.39550708509065846,0.4059317110580872,0.3895003249037165,0.3684543440783941,0.3755026229211713,0.4002103814335868,0.4189163041943106,0.4092074298644729,0.3600802433603686,0.2682578059731951,0.24709423820052895,0.23457932561408076,0.21258995044116297,0.18667208408507557,0.1572520246591878,0.15718004620859083,0.18749600483921422,0.21400345398929965,0.24349917604473484,0.2444458559471416,0.2148606840603891,0.1887208931862739,0.1646531480230518,0.18177688542185585,0.21676718338504275,0.24133875615977607,0.23517015167821578,0.19540497739260768,0.18753189099871462,0.21041294064951802
0.36785499056526577,0.2628929671610142,0.25352431418854127,0.263707367410939,0.22737935770472675,0.19280722605685835,0.18742935285811954,0.20832326588967032,0.2116490938928272,0.1976863068352299,0.19932982685535147,0.2243056992560766,0.24967853243270582,0.2575305139128752,0.24703299324576586,0.246764725031424,0.2571226694835994,0.2583608125024315,0.23837377820241773,0.21330012720840472,0.19658864328987255,0.19917772493190283,0.19075426585238023,0.15620953515477723,0.15782549053946043,0.16113310685386925,0.14565142210270268,0.1212876454450636,0.10734527286960752,0.13172560876615544,0.1794434675995235,0.20249556743230207,0.23562275188733112,0.311228953832185,0.3411877771553947,0.34277206922975584,0.3436842682336062,0.3922565757232099,0.44034716574765564,0.4873222940069583,0.5306402450004721,0.5819704675614433,0.6142019128564389,0.6142019128564389,0.6142019128564389,0.6142019128564389,0.6142019128564389,0.6142019128564389,0.6142019128564389,0.6142019128564389,0.6142019128564389,0.6142019128564389,0.6142019128564389,0.6142019128564389,0.6142019128564389,0.6142019128564389,0.6142019128564389,0.6142019128564389,0.6168987140878659,0.6116704520188591,0.5958090782078653,0.5862307794966654,0.5608977362782808,0.43722750175067415,0.3999900433896567,0.38343292021994785,0.3638243627591221,0.3615772009224314,0.36077570161556893,0.35986211731240925,0.3609507900230107,0.36437426238628684,0.35660131760442504,0.3565756248180595,0.37700982200618105,0.406006809888957,0.4338048280252761,0.4279092826175692,0.37188969221001256,0.25891232343212406,0.23052719935942823,0.23312536223405333,0.2152619482289683,0.18936233802416158,0.15855637718460988,0.15670734834123445,0.18673484834195947,0.2141231325235691,0.24492101910216457,0.24649414103477207,0.21652225096938166,0.19176689921247608,0.17560990664411785,0.19934914570255746,0.23917201688417739,0.2643170879384189,0.25328404867833815,0.20371441296813747,0.18942386739223427,0.21112944762935248
0.23037775109946426,0.19127885406027859,0.20506086855866204,0.22851748948957282,0.22300598993290974,0.19027629914072663,0.1751902470238661,0.19028039973237207,0.19728906840871477,0.19949935608335187,0.21355911549386883,0.23765266469822563,0.25258625625765596,0.2533017554749869,0.24368658697792164,0.2494434914135635,0.2638467479215727,0.2629560692503775,0.23898265758088036,0.2131022183948231,0.1891373653422644,0.18276741737648308,0.18502822882500988,0.17460586351529356,0.17614367423044397,0.15879291734232168,0.1318873957894419,0.10894394351299558,0.09475792635578956,0.09684087203748604,0.1217601652182562,0.1601132343223702,0.20654980652134913,0.29803224841169385,0.3400376151279818,0.3425953377979794,0.36558626749249545,0.41643566398736764,0.4730971623105286,0.531774814777439,0.575743917515938,0.6112042994922899,0.6142019128564389,0.6142019128564389,0.6142019128564389,0.6142019128564389,0.6142019128564389,0.6142019128564389,0.6142019128564389,0.6142019128564389,0.6142019128564389,0.6142019128564389,0.6142019128564389,0.6142019128564389,0.6142019128564389,0.6142019128564389,0.6142019128564389,0.6142019128564389,0.6146739277900968,0.6126031112765234,0.6010128091134572,0.5908410663308548,0.5574557283556567,0.4566897196566635,0.4150192609315748,0.39475207655175604,0.36740847667470355,0.3581862320014791,0.345754456238538,0.33311059888323924,0.3283765440591404,0.32822988956292176,0.33040891847800763,0.34682809476448323,0.37194762636113543,0.3931209426871953,0.41709456078799023,0.4209744765517517,0.3804005096829174,0.2916125401430652,0.26624778486281475,0.26362151038197756,0.23552221346968727,0.20964813512033809,0.18246904206205167,0.1780023692870414,0.20304570885464643,0.2294120647382509,0.25671713610014607,0.25661714848205797,0.2307850806409294,0.21690045295507326,0.21353086246064099,0.22683251057179007,0.25808139920400935,0.2828304755930699,0.2751050586091758,0.226696826200351,0.2083246736155174,0.22321379802788366
0.2458352533312084,0.20503822492154863,0.2137727779429336,0.23691983532998256,0.23478579485124554,0.19813137442887557,0.17108595908473634,0.17472596897629156,0.17492145134952916,0.18166231956422652,0.203278292066829,0.22738735275497016,0.23128866172681883,0.21987555476800044,0.21648134863412916,0.2350365753691529,0.266387729740191,0.2793281330063666,0.2589096648886527,0.2327834884219448,0.20367799687916757,0.18830184128696623,0.18951299029857793,0.18993226547821274,0.19358876076253023,0.1806028751674725,0.13985517848421256,0.10982994791296657,0.1074066124091006,0.11157135984126385,0.12527452772711792,0.17366071166087113,0.21257113715344658,0.2855345243347034,0.32149332333699854,0.3230265464615365,0.3687202391433787,0.43343582795174185,0.5166513205397785,0.5851433816415598,0.6082639773290307,0.6142019128564389,0.6142019128564389,0.6142019128564389,0.6142019128564389,0.6142019128564389,0.6142019128564389,0.6142019128564389,0.6142019128564389,0.6142019128564389,0.6142019128564389,0.6142019128564389,0.6142019128564389,0.6142019128564389,0.6142019128564389,0.6142019128564389,0.6142019128564389,0.6142019128564389,0.6142019128564389,0.6133772121800694,0.6044571941893278,0.5841659688059764,0.5174023490182054,0.4536255649751187,0.4339768356243919,0.42417604567862066,0.3931119514897193,0.3727613223984565,0.34812281575294374,0.3301665942700242,0.32696468269674167,0.32724130533752205,0.3315627695138275,0.3443203114847026,0.3579050046345636,0.3668262606271335,0.38915328218467565,0.40620032012448065,0.3902107028993275,0.3488625329708028,0.3347160793149427,0.32892470089073944,0.2856356012136808,0.2596435360407221,0.2386305418695268,0.22344203820161548,0.22281054801623043,0.24168945739982997,0.269704651128802,0.2863003324429865,0.2745317595213448,0.2720232649527893,0.2754157018867165,0.28847481913344203,0.3116190300711493,0.33560892227779265,0.32761491941718773,0.25952475556004667,0.22752376073902972,0.2291943468280278
0.44279665725237716,0.29640549298895513,0.2215993574566087,0.22479746723465852,0.23226635440563245,0.21139253095432414,0.1884409633647392,0.18571583165672673,0.17423184647110357,0.16971871687916174,0.18737666982700085,0.21102566431644715,0.21038117996710506,0.19509051854530043,0.20681676915331554,0.2362618363982889,0.27280097785787627,0.28479513348692836,0.26094735695866,0.2347945375635947,0.21278187432816428,0.21035668297343216,0.2196052173160347,0.2208413728669799,0.2211028156345651,0.2166241569038403,0.19308114450722844,0.1574289824733306,0.16534286888800603,0.19122489055209113,0.21324547277353925,0.2744078438927934,0.29518652747703156,0.3173374878821888,0.3292863618804226,0.3330081552993304,0.39813378798418275,0.48943572725276974,0.5769620099429325,0.6092682811631691,0.6143289308474352,0.6142019128564389,0.6142019128564389,0.6142019128564389,0.6142019128564389,0.6142019128564389,0.6142019128564389,0.6142019128564389,0.6142019128564389,0.6142019128564389,0.6142019128564389,0.6142019128564389,0.6142019128564389,0.6142019128564389,0.6142019128564389,0.6142019128564389,0.6142019128564389,0.6142019128564389,0.6142019128564389,0.6139971503272076,0.6059912809782776,0.5800409428285702,0.5007733493191292,0.4452310242804711,0.4307421688402655,0.42839913743087743,0.3979627562954749,0.37174660696533574,0.35001909865883246,0.3474285854294623,0.35638355149773016,0.35758165850189577,0.3580811901285971,0.359303697908839,0.3604177575142717,0.36219536697713717,0.3806793308800038,0.3968222738163245,0.38452178583275876,0.35600775844265775,0.34160559172064076,0.34876043717866434,0.3482086831797573,0.3415910776410692,0.3247598090016904,0.29481355411435034,0.2556926521763147,0.26333274648323907,0.30439215329210484,0.3593138579241023,0.36554653074425614,0.3661897196175612,0.37750898689761214,0.431605892122169,0.4674368241041411,0.4911110770786288,0.46683734491510287,0.344102813204441,0.2741253955814412,0.23090513014613567
0.5703659855054589,0.45384380604202473,0.294879073371198,0.22211573438726312,0.22212716318616552,0.22293240263437314,0.21365273461385859,0.21086818847765423,0.19264897166636838,0.17682379468229664,0.18768931262918165,0.21071696039495372,0.21356884769306816,0.20538496459967173,0.22617277395549645,0.25749876386114234,0.2830013206743896,0.27440818731652356,0.23848125657883537,0.21274087264088049,0.20349818005112064,0.22306631340530766,0.24503741257258924,0.2468299850867542,0.24670155215669098,0.24733803000789167,0.24934011144746865,0.2545913891900866,0.2853153620115793,0.33663335339527284,0.34663986207397707,0.35030776643777023,0.3449244063715253,0.3541076303065779,0.36732045204337305,0.38353641981925635,0.4551213996895579,0.555484641168849,0.6099607198978673,0.6165931849926034,0.6142019128564389,0.6142019128564389,0.6142019128564389,0.6142019128564389,0.6142019128564389,0.6142019128564389,0.6142019128564389,0.6142019128564389,0.6142019128564389,0.6142019128564389,0.6142019128564389,0.6142019128564389,0.6142019128564389,0.6142019128564389,0.6142019128564389,0.6142019128564389,0.6142019128564389,0.6142019128564389,0.6142019128564389,0.6142019128564389,0.6073765197686598,0.5782395205458593,0.4952362257105526,0.43468290765564943,0.41417081574679304,0.40455039360995126,0.37508364620504037,0.3491823045804824,0.33980285062340154,0.3601851491525496,0.38295121027973544,0.3847854269936408,0.38395299448517217,0.38296609728482617,0.382519739706787,0.38345423473862067,0.3956584887510003,0.4009770803653079,0.3825520121060459,0.3541050073245279,0.3349412578624001,0.33935499288307586,0.3519264216402701,0.3520165745264862,0.33679026992886973,0.3193227335519435,0.3138828927655633,0.3356598939234902,0.3711307404634132,0.3894536463723596,0.38209270984907057,0.3813459306592522,0.39965779387180633,0.4789477470379555,0.5262039784238859,0.5512699522157888,0.5496724855238803,0.49346350467625966,0.419203659176386,0.3060610980896449
0.6207199349007745,0.5622527619259061,0.4530231079478466,0.29841425188320697,0.2308214504086221,0.23977479912290256,0.24612284883235974,0.23897385314746988,0.21688023183454969,0.19917751236704243,0.20642192956149902,0.22318303520180446,0.2180760863883983,0.20355502049091564,0.2215917692354682,0.25503669884320157,0.2705402489716762,0.24975527477977,0.2167724666153807,0.2037861092284049,0.2138627214625205,0.24536073384568213,0.26397232334689347,0.25924693048229536,0.25564191736181724,0.2694830548675159,0.31197154290048257,0.3661627458121399,0.39366502671603926,0.3997482966477336,0.3818439849187672,0.3640958176980905,0.3530846539307779,0.3643879807636508,0.384430939058005,0.41199015364322,0.47093585515903236,0.5477775933769513,0.6108471541577676,0.6173836824823316,0.6142019128564389,0.6142019128564389,0.6142019128564389,0.6142019128564389,0.6142019128564389,0.6142019128564389,0.6142019128564389,0.6142019128564389,0.6142019128564389,0.6142019128564389,0.6142019128564389,0.6142019128564389,0.6142019128564389,0.6142019128564389,0.6142019128564389,0.6142019128564389,0.6142019128564389,0.6142019128564389,0.6142019128564389,0.6142019128564389,0.6120674863629871,0.5834534221868654,0.49045135513738447,0.41564644840307285,0.38290801377453937,0.3756320560618962,0.358561281700405,0.33470576240566624,0.34056514038589847,0.3844378439977492,0.41624022259262455,0.4124076171114768,0.3999756349518622,0.3873284040286864,0.38252246214893715,0.3827941401198234,0.38736227378124366,0.38306141223085627,0.3639986419854331,0.3416428372939137,0.33031678084808463,0.3398199445880348,0.353475148617682,0.3543366805614459,0.3471501502962548,0.34175962284405076,0.3476356521125561,0.3633498848914768,0.38465477104339396,0.3893309225334562,0.38356780888833586,0.38337957287246927,0.40145970825738075,0.47663295811386086,0.5169153534354513,0.5367196039215194,0.5491016005145145,0.5380684653493316,0.5043260693336737,0.4573548829327324
0.6403572956902026,0.6153189376064399,0.5707254745787587,0.46399751355207647,0.3176713268502337,0.2609106320702279,0.2532990155364005,0.23552114351963088,0.21554661259695185,0.21105930481066204,0.22186921371963872,0.22815365571071364,0.20830854548807576,0.18020344987670514,0.18973274924140113,0.23004816345524715,0.24316551738506953,0.22613829877474717,0.21377927506129332,0.22374369441966807,0.25014631307320384,0.26981445379774505,0.26238644959620494,0.24480157565200478,0.23609464707322075,0.2774341826533411,0.35863345051434536,0.407712921833045,0.41621584393254846,0.38927067273455485,0.35911174204500074,0.34936190293281494,0.34064569219738206,0.3477289311937706,0.369792089043429,0.4113580877356342,0.47358501126545693,0.5356475071270377,0.5980668095400061,0.6141361462266963,0.6142019128564389,0.6142019128564389,0.6142019128564389,0.6142019128564389,0.6142019128564389,0.6142019128564389,0.6142019128564389,0.6142019128564389,0.6142019128564389,0.6142019128564389,0.6142019128564389,0.6142019128564389,0.6142019128564389,0.6142019128564389,0.6142019128564389,0.6142019128564389,0.6142019128564389,0.6142019128564389,0.6142019128564389,0.6142019128564389,0.6171215108788506,0.5977057155266914,0.5003842017572782,0.4119635545971464,0.3660166678224745,0.36592942385819804,0.366291864056858,0.34458789958504094,0.3552373422577704,0.4001523210003699,0.4233336104348029,0.4080154134228553,0.38337690963295357,0.3654206706478919,0.3622183157399024,0.36246187819984804,0.36248074695343147,0.3575769367374252,0.34740120859719986,0.33667100284116297,0.33988694230538413,0.3589619167697443,0.3735982882126893,0.3753048222723354,0.38190283850732765,0.38656254897551867,0.38057093102044176,0.37142239033475055,0.3725475065123247,0.3901220442641472,0.4017876346550486,0.40315317701758324,0.41452663998214284,0.46953820571961347,0.5066140615327661,0.5216618329277184,0.5397684423205316,0.5491925692818186,0.5364586060555638,0.5175007551443322
0.6307569544761139,0.6339546768220209,0.6144539563898765,0.570196495277306,0.4775541228548356,0.33822374262350624,0.24793709402911313,0.20417768336782138,0.18647249623512313,0.19445610881491793,0.2102142092954109,0.2108869441670959,0.18993043960527278,0.1684659215198143,0.18165258369143725,0.22230910020985967,0.23576705421142383,0.2224412087475137,0.22244341250632174,0.24578248568732258,0.27735057613825753,0.28234705353029577,0.254294596001287,0.2326771607551616,0.2350940009895332,0.291298597399439,0.3548346556682267,0.3873862849624645,0.3972647628784054,0.3770143602436139,0.35384974249714535,0.3502628961206415,0.3380980057909812,0.3334026797011222,0.3509653739341602,0.39985901200996044,0.4691207933874474,0.5179085143541974,0.5690338538068505,0.6089129275663329,0.6142019128564389,0.6142019128564389,0.6142019128564389,0.6142019128564389,0.6142019128564389,0.6142019128564389,0.6142019128564389,0.6142019128564389,0.6142019128564389,0.6142019128564389,0.6142019128564389,0.6142019128564389,0.6142019128564389,0.6142019128564389,0.6142019128564389,0.6142019128564389,0.6142019128564389,0.6142019128564389,0.6142019128564389,0.6142019128564389,0.6181449502592808,0.6015200606007268,0.5140049254600998,0.4286177925812974,0.37711047464512804,0.3766157252981986,0.38170929684189214,0.3603441251709784,0.3636257065728034,0.390535490055355,0.39733278884437934,0.37490557565239324,0.3531780792668189,0.3505875541165198,0.35954252018478766,0.36072126760033024,0.36061026379341254,0.3600323143161605,0.35795986147500747,0.35393727782981427,0.35819359997731254,0.3691119798076166,0.3759550379857148,0.377549194012555,0.3923098014935578,0.4027376976219754,0.3892177651171032,0.36579025605125365,0.35533210878983423,0.3777508809087269,0.4012748410511088,0.4043715694846848,0.4060793200107989,0.4381646958250661,0.5065117539252288,0.5325271838205617,0.551770083751093,0.5672901739365013,0.5562719335697757,0.5325175556307943
0.612823842408107,0.6280667479063096,0.617242964938476,0.5928747153823101,0.5680561669892277,0.4856389283043065,0.31866269982389184,0.1997293282114709,0.16313788272390048,0.1705074278948216,0.18603291527076854,0.18653137819074558,0.176786817481756,0.1767406052017065,0.19929509987772717,0.23393649145669418,0.25073578329173396,0.23161890311417763,0.22599521592798325,0.24997832140732978,0.2937325306907588,0.3320559252063461,0.3081191695691965,0.27381590058604927,0.27976282298654265,0.3036108860673533,0.33726791382469423,0.3634267316493872,0.38387565957524833,0.38448455870160847,0.37443732454327,0.37194140537527454,0.35433874561336887,0.33934795542505636,0.35085759966519725,0.3964561179520174,0.46556572236688765,0.5083394613807894,0.5526420891206453,0.6026292106351243,0.6142019128564389,0.6142019128564389,0.6142019128564389,0.6142019128564389,0.6142019128564389,0.6142019128564389,0.6142019128564389,0.6142019128564389,0.6142019128564389,0.6142019128564389,0.6142019128564389,0.6142019128564389,0.6142019128564389,0.6142019128564389,0.6142019128564389,0.6142019128564389,0.6142019128564389,0.6142019128564389,0.6142019128564389,0.6142019128564389,0.6141232438376152,0.5791475212414882,0.5090133334679847,0.44221248210934483,0.3914165441342941,0.3852261541679229,0.38376374452260387,0.36155960245874774,0.3577643079951133,0.37169281638112917,0.37054808561575664,0.34805365784910575,0.3381580187275733,0.3575494198396529,0.38014480977204695,0.3826703718200053,0.383286532036505,0.3840559254933737,0.38331220466442323,0.37953425445804173,0.37257398497652555,0.36181084005475894,0.35518336915748383,0.35581636152115714,0.37113357654658213,0.38195465983043936,0.36792127374728995,0.3433796073926406,0.32873471916600205,0.3447582470001636,0.3737605499104881,0.3801040545668383,0.3882108780143423,0.4313536155696609,0.5241300520710874,0.5561830143639445,0.5698291714504778,0.5755024535849418,0.5584982348873938,0.5335378317430343
0.604677623350891,0.6143894969839316,0.6106309722090781,0.5994610136600279,0.5909799805824482,0.5665728502696957,0.46373307158506594,0.28687861917118695,0.18710985537965738,0.1726981102658128,0.17494381224007113,0.16872005547441155,0.16258027016175228,0.178592126493918,0.21342729573506616,0.260938589910423,0.3126103338053302,0.2965250590445983,0.2796430705363542,0.29737199472610615,0.3532260533020727,0.453316838775918,0.4419621303545399,0.3514990089598706,0.3224165838777242,0.3287807322139848,0.3451784190810457,0.3578994651339298,0.37034001216301704,0.3753698094084586,0.3733966959908332,0.371959434290203,0.35822523816374197,0.3502923099592055,0.3660743935301627,0.4042283218076386,0.4650509637581938,0.49728544251482043,0.529682858213004,0.5833857741430043,0.6142019128564389,0.6142019128564389,0.6142019128564389,0.6142019128564389,0.6142019128564389,0.6142019128564389,0.6142019128564389,0.6142019128564389,0.6142019128564389,0.6142019128564389,0.6142019128564389,0.6142019128564389,0.6142019128564389,0.6142019128564389,0.6142019128564389,0.6142019128564389,0.6142019128564389,0.6142019128564389,0.6142019128564389,0.6142019128564389,0.6099612611952481,0.5625962079559994,0.5013272866109253,0.45038790317744337,0.4083339238344576,0.39874400927570713,0.38493503465202705,0.3608837893500651,0.3456286473467673,0.3429613663151587,0.3369539274170722,0.3201435519650306,0.31790084971931826,0.3460644079640235,0.37645449175384893,0.3854598028853263,0.3938183810308124,0.4035237153057926,0.41068457431207533,0.4129124398255575,0.40232570722356004,0.3754701371172484,0.35640841033576265,0.3559980558499421,0.37131526938525095,0.38213635257330786,0.3681026142446141,0.3433938423637692,0.3237783573910267,0.32535643309755985,0.34237898128124666,0.3459894304892753,0.36627657934166913,0.4347229706158596,0.5411517149091392,0.5684598957620774,0.57439067803141,0.5754616596458662,0.5583702905371513,0.5331453165307368
0.6046790106489982,0.5957023827627028,0.5991353898662788,0.6088257799769463,0.6046006856711649,0.5864708571676933,0.5591767587489094,0.472986783791819,0.32483289834532647,0.23292245394383593,0.19576322100005855,0.17375332713975086,0.15578445955051018,0.1699227655578741,0.22277793613867047,0.3327807014582414,0.4671839129304982,0.4785125101761559,0.45609964502881667,0.4606404351436158,0.47189858167761844,0.5003968183037584,0.48456361299394685,0.40410325828533,0.37366122468841834,0.38138537781449056,0.37797688283909914,0.3671313509897912,0.3556403098895873,0.35093073083904636,0.35269668533352266,0.35239884688404455,0.34615239932087316,0.3518805830076064,0.37593234314468754,0.40523469218865654,0.46035955610160617,0.48446016331727537,0.5090031134976357,0.5620418980519469,0.6111742042589732,0.6142019128564389,0.6142019128564389,0.6142019128564389,0.6142019128564389,0.6142019128564389,0.6142019128564389,0.6142019128564389,0.6142019128564389,0.6142019128564389,0.6142019128564389,0.6142019128564389,0.6142019128564389,0.6142019128564389,0.6142019128564389,0.6142019128564389,0.6142019128564389,0.6142019128564389,0.6142019128564389,0.6140876080610718,0.6062102318307163,0.5431899334499908,0.4789373697086655,0.44151382277565776,0.41648938091772647,0.4121101988747443,0.3862924797728385,0.3603656938567485,0.3379850996926154,0.33001472785023106,0.33004911675003423,0.3235229386284674,0.31677897109535585,0.3274658335640754,0.35171116723564516,0.3703771182275594,0.38405748051435157,0.39420627268217606,0.4060657446501549,0.41922448513430477,0.42036410254067835,0.3979459330904932,0.3767513204838968,0.37594522036068434,0.3912624346360291,0.4020835178240861,0.3880497622598293,0.3635771423222669,0.34548889293588947,0.3393119369430627,0.33862531171641086,0.3370274312061723,0.3581582740679825,0.43159896647305984,0.536163272236911,0.5536719125507867,0.5551680702834166,0.5646050276071686,0.5573870159539325,0.5331111892911536
0.5971359266236151,0.5816538481309738,0.59211809768227,0.6144822231847507,0.6144562597299636,0.5944999335559152,0.5903271405939781,0.5918845126742217,0.5263494329535182,0.378631265237968,0.2838647176897459,0.20790641261286985,0.17548285978578715,0.21743358280610353,0.3052436643648661,0.4618561587687474,0.5566817786712139,0.5578330552787177,0.5386552550548295,0.5360451587665347,0.5221947342988733,0.512940320453482,0.5169815312275989,0.48847273174081157,0.43151977631718785,0.41227748954307986,0.3878659393810435,0.36268299692936007,0.3420183597400512,0.3406815810396994,0.35020075275448215,0.35059181286838903,0.3412040127709235,0.3412009192898597,0.36178328527954473,0.38764628901031867,0.4434162388266908,0.4751220997157577,0.4975159620337421,0.5399711272051668,0.5951651330366237,0.6142019128564389,0.6142019128564389,0.6142019128564389,0.6142019128564389,0.6142019128564389,0.6142019128564389,0.6142019128564389,0.6142019128564389,0.6142019128564389,0.6142019128564389,0.6142019128564389,0.6142019128564389,0.6142019128564389,0.6142019128564389,0.6142019128564389,0.6142019128564389,0.6142019128564389,0.6142019128564389,0.6152703821085121,0.6032535123091081,0.521684228280324,0.45035657546653385,0.42080485073983037,0.41565157606151953,0.4169914497330512,0.3868899090483512,0.36045302881744756,0.34148892297294986,0.3443146182492102,0.35636898412254703,0.3562911941006507,0.34174496068504706,0.33270498647240054,0.347637660143453,0.37109190612120446,0.37776344514239363,0.36913696841036325,0.3669527297723849,0.3766529003976353,0.3988823836634415,0.39431955597660895,0.3781849954673997,0.3775872355874666,0.3929071680036037,0.4037283758019685,0.38969461790171517,0.36588758494535495,0.35891805567333246,0.36743672746127143,0.3686961034771975,0.36281619645302554,0.373298601249232,0.42471542915184357,0.5043614117821106,0.5251638333517203,0.5322168447507252,0.5515723149652805,0.5530439613813418,0.5299325271004696
0.5789444728091087,0.5738375855877723,0.5911793409183349,0.61487415044454,0.6151615172046883,0.5948324794794144,0.5920557080062174,0.6140439327962601,0.6253660327255544,0.5769958376835493,0.4830145564965776,0.32357228243381503,0.28101261821769424,0.3903243178660658,0.47593706690985293,0.5456640046714794,0.5805880670045158,0.5780193638737596,0.5649496738900497,0.5620321913490431,0.5468031146270952,0.5366521762998839,0.5494578155859313,0.5431684769591854,0.47509142591781595,0.41193311285203993,0.3653157772104934,0.3387616232112468,0.3291692121222342,0.3491182042553748,0.37205112933066736,0.37317748053816213,0.35241421966699016,0.33064249290970216,0.33731606437710177,0.3621000422432746,0.4165001051351621,0.4653365981419346,0.4896103438410868,0.5221702125251555,0.5753777222460775,0.6131977700781504,0.6142019128564389,0.6142019128564389,0.6142019128564389,0.6142019128564389,0.6142019128564389,0.6142019128564389,0.6142019128564389,0.6142019128564389,0.6142019128564389,0.6142019128564389,0.6142019128564389,0.6142019128564389,0.6142019128564389,0.6142019128564389,0.6142019128564389,0.6142019128564389,0.6139066798207311,0.6161717899132158,0.5991957070952538,0.5049009330363197,0.4306051550042116,0.40359181328649574,0.4147912306979026,0.41717155410793677,0.38790259643343344,0.36216657145765674,0.349590124030384,0.3638491450145568,0.38304756044295685,0.38385216726807014,0.36835546626594917,0.35672421687610756,0.36968715987188633,0.3921524058617036,0.3867519556165299,0.35020105184031364,0.30856502376876793,0.2898727601041675,0.3314917926590483,0.3595471111574775,0.3540992516067321,0.35546680974937167,0.3706999134020481,0.38055729331337296,0.366355587015733,0.3438225630997776,0.3495561619374783,0.38023731576948344,0.3932873474449107,0.3851116685706266,0.3885298061880449,0.4011748633500997,0.41026678462778776,0.4356665596547967,0.4532639206494997,0.47401517213774463,0.4764901195350103,0.45441163598326967
0.5628747834160651,0.5693466080620613,0.5909985376789894,0.614960037012371,0.6152808128192748,0.5907009228486282,0.5802139828826012,0.5969061590572029,0.6189084294546288,0.6217916267388962,0.589480768765255,0.5211878699389163,0.481474316896335,0.5130185146701708,0.542407990450905,0.557792227237458,0.572473801314889,0.575772319696011,0.5672556490904138,0.5592067165568199,0.5438455618261436,0.5429762392498667,0.5654814752000914,0.580941939491199,0.5364486649212965,0.40995896795286585,0.33307134229185364,0.3110553744759419,0.31293318171802276,0.3486305697157706,0.38358121498373404,0.3913635177805747,0.3708849182620372,0.33150544597652803,0.3144544048502768,0.32561114265468966,0.35841041038911714,0.4272474916728005,0.4654265700090773,0.4981070606069666,0.5500472998344218,0.6024001232773297,0.6142019128564389,0.6142019128564389,0.6142019128564389,0.6142019128564389,0.6142019128564389,0.6142019128564389,0.6142019128564389,0.6142019128564389,0.6142019128564389,0.6142019128564389,0.6142019128564389,0.6142019128564389,0.6142019128564389,0.6142019128564389,0.6142019128564389,0.6142019128564389,0.6108063055608819,0.6080010100114266,0.5761128846656892,0.48260615382766403,0.41331870989993913,0.379125028793165,0.4010485477963217,0.41226446463611977,0.39892541899231326,0.3807504227652873,0.37590506060865775,0.39476655258682625,0.4140521122410621,0.41490055107839713,0.39947058197285146,0.3793348916163271,0.37676399865131227,0.386236191400641,0.3735826604074089,0.320317170023441,0.25380911125982514,0.2240134446950616,0.22728091895411162,0.28381895906090443,0.3140460134149709,0.3465833290918429,0.3633479333096275,0.36007116350508417,0.3450571817076201,0.3342122610907403,0.35149722344546025,0.392016217353825,0.40463805161448124,0.37907825538481554,0.36503218226089906,0.3250562747176402,0.2459274815184882,0.227222622128801,0.23639754393021356,0.2535519813028878,0.2591416463163136,0.24860219209458811
0.574308363933834,0.5771282358362998,0.5917521028116073,0.6153326971724358,0.6199619440629807,0.5955456828966464,0.5759062140602332,0.5805037532657377,0.5850721701025661,0.5898908238796005,0.5952356036584052,0.5895680750830414,0.5776323608206473,0.5719102279582664,0.5591897553401517,0.5485832417393974,0.5504195519200297,0.5577666730886743,0.5521053655340995,0.534288422603878,0.5144492967322196,0.5223737904809638,0.5553938893778886,0.5791053639023529,0.5444090239056282,0.4033084203741072,0.32672927187089373,0.31458764657235994,0.3145205932266242,0.33744132949856176,0.36909243299511324,0.38810250594166174,0.39054196013954534,0.3606202407076682,0.32597296967056644,0.3136781258776511,0.31995768978145966,0.3657362641537385,0.4211468678150817,0.46104941796089033,0.5069108629032117,0.5646376163241367,0.6061608219181334,0.6142019128564389,0.6142019128564389,0.6142019128564389,0.6142019128564389,0.6142019128564389,0.6142019128564389,0.6142019128564389,0.6142019128564389,0.6142019128564389,0.6142019128564389,0.6142019128564389,0.6142019128564389,0.6142019128564389,0.6142019128564389,0.6117770869631086,0.6010804794453518,0.5638461653306751,0.49622910896267114,0.4433208498571486,0.39747412829753315,0.36773004589329833,0.37205065211366134,0.39128568249137485,0.40168762638119115,0.39619653954056155,0.39606994523552314,0.40657934083488834,0.41599163496263636,0.4166236439256173,0.4097954896047668,0.3896947310886033,0.36774606090990314,0.3495742561839036,0.31977180425430857,0.2774267069566953,0.24823115039062366,0.21520266923444323,0.16317632636983775,0.1703687838248732,0.22108235065506276,0.3095897993289922,0.3419207597912657,0.34500707540638514,0.34158673642737863,0.3523067649643953,0.36752511431619167,0.37689297263731086,0.34799629682533867,0.28897311186334695,0.25156508581367365,0.2015140591964719,0.15570496141995757,0.15558542933002695,0.16232120885598342,0.16598426775071112,0.17244493943802444,0.1819091415142211
0.6040812833502616,0.5907965017750587,0.5928157491877403,0.6158155491843547,0.6280724091723289,0.6130096068464693,0.5935474413267423,0.5910953072193366,0.5797478788555777,0.5740912117968222,0.5815344743279778,0.5818495723223005,0.5974608527641961,0.5964706675048619,0.5672034799402648,0.5428152361220167,0.5399598760798301,0.5543017907336082,0.5531017286970938,0.5294347210123862,0.5018675012781944,0.5057472325204948,0.539194312042315,0.5641004497771693,0.5450845890144573,0.4355578084500355,0.3607756490913814,0.34755085654369045,0.33575952475585896,0.3324808259755683,0.35090256764439,0.37627131177929296,0.4025041027262534,0.39681203796413794,0.36300701930073154,0.33736913039234534,0.32330123617199313,0.3336886145750368,0.386910381335944,0.4296292356227791,0.47046365379622973,0.5223949084041882,0.579032603806494,0.6030865662574284,0.6138974919274429,0.6142019128564389,0.6142019128564389,0.6142019128564389,0.6142019128564389,0.6142019128564389,0.6142019128564389,0.6142019128564389,0.6142019128564389,0.6142019128564389,0.6142019128564389,0.6140210378153548,0.6080790575881665,0.5933557097922645,0.5550754565158327,0.4551365487636453,0.38323041940257213,0.3848627192577842,0.37509041843151164,0.36053129223744107,0.3495060342008016,0.3642572583825441,0.38312978523166263,0.384615579088005,0.3847193418338622,0.3855942823863805,0.3863184967545968,0.3871221150792519,0.39498445353949363,0.3869403080600423,0.34831655977849335,0.3020086235451414,0.25348468298461313,0.2484293349690375,0.24818242279662153,0.20905511782876635,0.1352744841320366,0.1191620764124624,0.15738534888891967,0.20842296534758237,0.24031952119826835,0.2862047239674441,0.31471343098660975,0.3617209153129837,0.3661823715987403,0.30958742696261954,0.23374875316865706,0.2096716959898555,0.19436072900914558,0.16216367645039312,0.15144420841239764,0.17158904135460132,0.1750931937103316,0.16165741376084986,0.16303201957908353,0.18407421603170118
0.6242631923583974,0.5985012110499373,0.5924946081069936,0.614613628032588,0.6332837503580084,0.6304327722706571,0.6179798655139129,0.6144883216263961,0.5942475085083408,0.567693022629275,0.5505907872681837,0.5641571014160471,0.5942957404711141,0.5966106216796663,0.5673242658139773,0.5430356152127743,0.546087317009243,0.5714442147209968,0.5769154949381675,0.5533477682888235,0.519876612563404,0.5128972752287712,0.5395309042646518,0.5649790775958156,0.5735313733087799,0.5162450356649093,0.4106712543406996,0.37621686999997644,0.3562047884679825,0.3400724890238768,0.3509069545462455,0.37648555918482196,0.40965640975979223,0.4157973571017112,0.3887928767397727,0.3633899347193266,0.3480482496897066,0.3564888347885513,0.3757589557073639,0.4130240415064017,0.4427205046411675,0.46355233487685643,0.48949624673419395,0.5374147614418814,0.5929700436395289,0.6086686856098882,0.6129239103529602,0.6142019128564389,0.6142019128564389,0.6142019128564389,0.6142019128564389,0.6142019128564389,0.6142019128564389,0.6123143138804589,0.6042404506304233,0.5901361986715353,0.5423533730120549,0.492039747204073,0.4366086594538403,0.35840118466210935,0.30512485528594185,0.29070347718934336,0.33538884860825996,0.34996671845904137,0.3405661634540379,0.34506935054601645,0.3576908083827348,0.3588061742702254,0.3585849814987958,0.35871310620589075,0.3589248533881585,0.35977248397525297,0.3730195866119012,0.36030424925832183,0.2997009267550445,0.2536193454932206,0.22924793241734584,0.2306859904820131,0.2245613617379683,0.18453376540562025,0.11044593991618165,0.09361560235577565,0.12327927915080339,0.14952332787125516,0.1618144644521863,0.1735210035085588,0.20889842357843982,0.30106843966797003,0.30420781028022176,0.21153213347911717,0.16117371270099212,0.17252937214120903,0.1779348222483779,0.16883965078560137,0.1730673548665714,0.19481705883999662,0.19238178938026831,0.1678592777147616,0.16303214489367854,0.18473730741885555
0.6369011594512246,0.6003262347140096,0.5828050299145959,0.5931613443949006,0.6153871236898683,0.6337135066129982,0.6338513493930178,0.6160343357007723,0.5609397691198408,0.4997578651038019,0.44631261847071185,0.49665931006137076,0.5578627177794492,0.5731083263356636,0.5598988521063033,0.548863825243902,0.5635655015479089,0.5954840405180778,0.6047129554941977,0.5871721728041496,0.5577312572195854,0.5442900968983497,0.55913198534476,0.5782216753534933,0.5946202056894041,0.5683995920767921,0.4710859014017103,0.4152956612033278,0.38348525013585844,0.36008267850433,0.36674124284532916,0.39144580199268714,0.4168576462462272,0.41746710969952,0.3974810941412772,0.3845424749533022,0.3771382183781766,0.37672541607996207,0.3754112873021501,0.3686949334068957,0.369665075188371,0.36896241361784965,0.39877330266785915,0.4485847234421376,0.5059891970117113,0.5368857059070847,0.5628983975923046,0.5942433931867732,0.6040917825251919,0.6101214390898259,0.611541213088965,0.6064110304664023,0.5923616131524139,0.5529095748959637,0.5204010887935068,0.4938873340364758,0.451518116753732,0.4064919970831634,0.35318270971599286,0.2967303935363047,0.24033235673298953,0.22807032562835777,0.24933484358709299,0.2982002388126931,0.3232630610298044,0.32939835651630406,0.3308640009058128,0.3250676877430735,0.3208941906532492,0.3232950971481889,0.32702861771085445,0.32117771136153034,0.3111851110041202,0.2885905393341083,0.2669559026129483,0.24955314681616322,0.234877020395617,0.21489070478020908,0.19212153364304216,0.1572804712867434,0.0986801818650111,0.09195673388097675,0.11425973891256014,0.1266943004770057,0.12577624263781123,0.11982917128171455,0.13507610874267292,0.18034908968245159,0.18626900547532668,0.14123776016310258,0.12334657718024483,0.1386970185273079,0.15230295291248613,0.1620361243660453,0.1751709847047652,0.19177795483616245,0.18543544842747103,0.1632867021754111,0.16259545369890582,0.18493240906742464
0.6065947818828429,0.5827904823494757,0.564130591161331,0.5542226570916975,0.569465576417526,0.6012710626652036,0.608877986493632,0.5590742725047543,0.4405616098346391,0.3815565070010064,0.36492528621610226,0.4040774951791316,0.48077765335850753,0.528034055647066,0.5463114883751703,0.5585581594383835,0.5807447914453266,0.6000565267871381,0.6012711478665198,0.5938804848387564,0.5807137651636924,0.5723059131100501,0.5761253929971794,0.58348345302121,0.5918863566774474,0.5873752704885864,0.533598776819247,0.4386691636456309,0.3879507340350742,0.3677674461944161,0.3769986676889423,0.40062705721574277,0.4073614258497459,0.3892918125906188,0.3765002772332564,0.385638617594749,0.39663334657331684,0.38760016297735156,0.3549671570500826,0.2989424458216654,0.22695144542789875,0.2533848016803875,0.31687241227375124,0.37114299687392904,0.41724256111148494,0.4469821125957042,0.47210791441686406,0.5048089094174009,0.5347778798281033,0.5773338436181611,0.5745819098708744,0.5263630211178003,0.48599856790534707,0.4445772984088693,0.41873048305820704,0.39916414303719217,0.381429303022103,0.3480280797108753,0.28878309415527903,0.2232624625645644,0.19871808411430594,0.1888182126601461,0.19298736049569803,0.226106602595879,0.2958545094208912,0.3377805350634617,0.33565442391747846,0.3186240804555881,0.3073590082363557,0.3128676547484361,0.31725272605550087,0.2844222686539905,0.23365664311343326,0.22242216508096668,0.23772281613964957,0.24849984844042716,0.24421378562840074,0.21529495722117975,0.18657400721707662,0.16255099958159036,0.12735035500841332,0.13096319043313687,0.13619913244096282,0.12619281562294576,0.1127101832989019,0.1092646793768404,0.11830657080450963,0.1316029689394415,0.14164262784845494,0.1321515335378471,0.12659025130673113,0.1328572176963454,0.14164491196227105,0.1518117083504523,0.16077426805046452,0.16698022319820774,0.15849513842609775,0.14939863516834628,0.1614258660271491,0.1848118370666827
0.5299874582605208,0.536949862660631,0.5316566602604236,0.5103681334571686,0.5138311066942062,0.5396914674330229,0.543974193063326,0.4896443234636413,0.38180003115105665,0.3517010842281906,0.3619245949669933,0.37183120920349144,0.40277513091604183,0.4706442160564751,0.5296443947730975,0.5632090937347246,0.5828732096827148,0.5807922069402455,0.5688177682231427,0.5669597251608696,0.5660073591664161,0.5652665717795219,0.565386871834072,0.5658533835791274,0.5664988380664367,0.5648710382531397,0.5256098574328323,0.4168857514222902,0.3602654366839582,0.34600630896059936,0.3595560121214967,0.3829087771264593,0.3816311962041556,0.35859743414041445,0.35339267961113563,0.37609428557642954,0.40248822930133454,0.39038337340779555,0.3207815858227855,0.2306952163112366,0.1667104409881786,0.16258947326486636,0.23058940024273572,0.2929715789932178,0.34045696398100533,0.3658507824518059,0.381533975586857,0.4008721298126083,0.4283574954608138,0.4600966296812525,0.4514223116836587,0.4086772234383437,0.3694454082020987,0.34562237050079025,0.3371383646645484,0.3258186394473815,0.31714806512625704,0.2837074070429883,0.22361608719459178,0.19762620817326723,0.17894743628485982,0.18162700205590013,0.19406045835198668,0.20532282576351638,0.26421732118690555,0.3488596346416515,0.35965278347277463,0.33828679565102204,0.32189820781967987,0.3143834248087209,0.3067440277161364,0.25384087977587977,0.20865837252523206,0.19767604962824145,0.21496317098066908,0.23877330600034685,0.250238471072184,0.23447601455987604,0.2134913093270786,0.19644345229841775,0.17004066787080957,0.17052450978433317,0.16004128763430703,0.13646760417965303,0.11829503087641502,0.12181745591124626,0.13489615494923443,0.14191948456294487,0.15589880006168663,0.15999742150566043,0.15976814871026207,0.16017327805113823,0.1609579576447333,0.16201508476284396,0.1628342731192435,0.16233053638485323,0.1500687225058402,0.14413647188690554,0.1609349189594115,0.1846078349545325
0.49772048424991655,0.5289198620251088,0.5379278568557172,0.5168053934356838,0.5130154138437181,0.5266549964635625,0.5241434626341523,0.4732800197726078,0.38126283521754256,0.36615496121926794,0.3836620891507312,0.38533318304037,0.3770911726974133,0.40369666967977536,0.48733878546660203,0.5538392209588008,0.576297944411738,0.5627768607115864,0.5431726489635227,0.5408884942303658,0.5408831795945491,0.541163977076086,0.5411949014559115,0.5408884150812181,0.5409634702734627,0.54015648471557,0.508179486037371,0.39950681243441855,0.2970547840793123,0.26398689725543745,0.2760097925987563,0.29947814761208186,0.3149827374551157,0.334577203702728,0.34792750566818803,0.37215519910285927,0.3985522584378162,0.36937211174640805,0.28009507327168137,0.21679502770909226,0.1750421368326458,0.16675750114832444,0.19280930567164686,0.21966308957343572,0.26387545154065967,0.2793226706035087,0.2871831692810082,0.3047231981261384,0.3303493033244147,0.3487806035287439,0.3408591862760347,0.3153575508059162,0.2796528880480566,0.25850778369374044,0.257701670943826,0.2528509524219527,0.25075203309476013,0.25080094172504797,0.2208569137647475,0.19507145642188442,0.18258475295387103,0.19725060468156794,0.21725474525315147,0.22720933542798175,0.2785511297473403,0.35197203629296486,0.3589319122498136,0.3400149134517851,0.3186727095348054,0.27428812811001557,0.2627297708749247,0.244330717256588,0.2192462942954728,0.20324620166943175,0.21463005869399993,0.23917988721655506,0.25777089728859315,0.25394884902776393,0.24017673049588278,0.22374560123659679,0.1913913466723461,0.18019173943673794,0.16227350244277108,0.1382676204934443,0.12582262142446884,0.1395497482306921,0.15822655421117493,0.1649214731226251,0.178846320035017,0.18399881826117587,0.18466774677259584,0.18503996192363154,0.18526115401533497,0.18513286619332683,0.18490415348556888,0.18362120150473965,0.16562317891863237,0.14966971411255253,0.16030649973896396,0.18320236041096102
0.491437532043618,0.5430694088699044,0.5642316803695382,0.5487027392150581,0.5335478738309563,0.5255746453995077,0.5176561980337315,0.47802017910157824,0.39049911578186625,0.3681809006621537,0.38099509035394447,0.38729954988890214,0.3743230134783604,0.3658810320706103,0.41506953392614376,0.5116452504069116,0.5670190789876896,0.5580598067493273,0.5314410501396774,0.5229645375581501,0.5228644586871625,0.5281623317196693,0.528745789536311,0.5228782391313723,0.5227767611392317,0.5304368905109189,0.5057641095824568,0.3706268571380234,0.173186059000869,0.0963555238057992,0.09121313523646124,0.10362274247955466,0.14771813698589215,0.24997389133503062,0.29425502719513114,0.3130960171224531,0.33173274156361826,0.29382912836240127,0.2509092210085551,0.2295551576461109,0.19953876682434604,0.17612537700314787,0.18209144956963916,0.20015379845050227,0.2132578535273398,0.20946402384785068,0.20623394612364837,0.2230710069931296,0.2508013969067877,0.2742055823172858,0.2709747547593103,0.2488057979306999,0.21637379406331708,0.19346501198277422,0.20023612587598216,0.21328823848513018,0.2277508436038817,0.22389909758118046,0.20143892451074968,0.18251111938503634,0.1777221591287836,0.2012564958276517,0.22995851084814323,0.2590769142175361,0.3284526668611566,0.36019514362893945,0.34732872706479484,0.33035266026247895,0.3143659092179397,0.2795337076574476,0.2620321239780963,0.24979054599889972,0.22724867171912572,0.2141858151874357,0.22972235713528294,0.2549041433527793,0.27727414204624545,0.28034670907796533,0.2707482105912693,0.25366310065962383,0.20599186501817895,0.17547154032861417,0.15622453028314698,0.14426780289855848,0.143539394278797,0.15532554276656743,0.16224605601648043,0.16159688473442052,0.16771250096157833,0.17243221209719728,0.18072154973966736,0.18771786673811328,0.19189115597751988,0.18947072609213245,0.18515553905514132,0.183527706404003,0.16560782774237048,0.14548467828777684,0.14841391279247654,0.16509691013840092
0.5078869594528999,0.5473511560156669,0.5607650859549369,0.5537556989386405,0.5316448850825156,0.5094135144036109,0.5065507234001013,0.48746500959974925,0.40225908301186664,0.3579346757059891,0.3570440212123117,0.3726893968996935,0.37098556638889835,0.35868178015335583,0.3731637875945304,0.43957276646484383,0.5345831882328298,0.567585463183971,0.5459696885199381,0.5278299712813018,0.5275809023948429,0.5418340167364054,0.543403173065584,0.5273365792163882,0.5209137812870914,0.5144871144494685,0.4205177686384918,0.22746445780268476,0.10860182223351553,0.06622147311020915,0.04441759156996311,0.0343523486594734,0.057171520764695394,0.11902625527796507,0.1450768230946484,0.1568714196241617,0.19892973448603296,0.20851878136332289,0.21996964826932772,0.23015262880240006,0.22148985225339202,0.1943361494650211,0.17914067043808352,0.18497369124439608,0.19851134105471027,0.2124698980048026,0.21786914302853,0.21865628635259046,0.22734508868288922,0.23810801277862714,0.23825355368443107,0.23150935085279317,0.2269240169974459,0.22194202973392857,0.21310977472809206,0.20244129954722773,0.19333475961235416,0.1881016595557059,0.1836920542910422,0.17665946955409073,0.17228230205181166,0.18753710479603602,0.2205341652328782,0.27297873806183415,0.33985252833590585,0.34401530662783186,0.32213364608190415,0.31440720252260124,0.3226131054074238,0.3168947770174248,0.2701074656040352,0.23589548319511155,0.21076913177233086,0.21076023659064108,0.2390153140993969,0.2652461214258994,0.28528073265102755,0.28409248549283656,0.2719147211732395,0.253617282569185,0.19193593941049766,0.15124875211393063,0.14435134837382424,0.1547281628742541,0.17008114896850704,0.16958756040612993,0.15018810986617248,0.13604075561749845,0.1282170288236453,0.1321639600841547,0.15405506654294865,0.17287483646419893,0.18410227729824435,0.1775905771448935,0.16598138048199068,0.16420677735355746,0.155506940026554,0.14450837804821384,0.14370910062340153,0.1500358848169173
0.5326015217497673,0.5369731499150123,0.5289171083166923,0.5261187536909904,0.5075249114271401,0.4907809353487372,0.4993519048794026,0.49319123938182696,0.41186545806440444,0.3590697952967071,0.3528233496695785,0.3740909968335321,0.3769534118590288,0.3622702109926276,0.3641441181836941,0.3977943617315028,0.4704208553253556,0.5439320724577215,0.5557779857097583,0.54043782912205,0.540781290070825,0.5603629615447128,0.5624623527531334,0.5382745225856876,0.5008698633715345,0.40296393681043285,0.22877127553615484,0.11886016163470975,0.10215120474222145,0.09916641410200716,0.07861518253886568,0.05570619663712251,0.05944983019998723,0.08668087329930774,0.09449932465590144,0.09788974088552982,0.14075128380571644,0.16514859842229176,0.19565698360655603,0.2208254511990097,0.23212292082208058,0.21668132676628482,0.1973794563010062,0.19618846460131062,0.20240303336528195,0.21305564178970707,0.21930940582302463,0.21979738151402844,0.22045355793070723,0.2211240924428575,0.22064490216560934,0.2209150096939263,0.23222026519500144,0.23704967333820712,0.22033166124370945,0.19627312927392376,0.1782682432129706,0.18147272898701083,0.19336693121937168,0.19340114007532444,0.18164161398674744,0.17877990521195075,0.2165991593516134,0.298904733513528,0.3449342234007634,0.3365695226786094,0.3171449721752998,0.31601033039901383,0.3329782115211655,0.33285673074956873,0.27426065263121224,0.22165150770081238,0.18829563292143814,0.1911040045651001,0.2241217054571594,0.2506394101574744,0.2667226506665076,0.2583252723866812,0.2417835003556736,0.22295458501555032,0.16060847721414756,0.1278340955940408,0.1366959453558265,0.16105851515081773,0.18845121334836307,0.18525362786776983,0.15306723554506782,0.13120853612972375,0.11503348355641943,0.11847500970493235,0.1484269836735828,0.17425573303249728,0.18966491057423007,0.18072787358311068,0.1647947712138022,0.16306568219211948,0.16239847077873598,0.1614922983839835,0.16131775214222324,0.16171260311153782
0.5461516185000266,0.5265834851458396,0.5046123853221263,0.5018601542606678,0.4898766181441131,0.48434380182278214,0.4995612599744511,0.49421664858699954,0.4192385493836275,0.37639022707166364,0.37557608532141773,0.39673120959547414,0.394290748687475,0.37004923486387065,0.36527373076611086,0.3894549757777073,0.429474655112717,0.47345126573432933,0.5163147788614537,0.5337399826525169,0.5422916277528487,0.5618882217801151,0.5620417630564062,0.5145377927842465,0.3842986126263692,0.19495685589711337,0.09506131622483632,0.07239891808820514,0.09065016063658177,0.11125156194224353,0.1039023870685809,0.08142131052693474,0.07807180074809511,0.0917607042183804,0.09140038350601748,0.09395771882463633,0.13757604293240416,0.1635893143230743,0.19513838709826042,0.22091703004735372,0.23867029382732763,0.23414666785744082,0.22070246173885716,0.21860161929276836,0.21319829507616414,0.20387198462036502,0.19837740941789997,0.19795159151525868,0.19732931610178875,0.19597849319683242,0.19464968639202687,0.1956550410555062,0.21416352681838402,0.23082702590969456,0.22032998784330737,0.19613683505800616,0.18312331869152437,0.19735811709311854,0.21698303396430038,0.21801031497123763,0.20018050537572696,0.18968066113366017,0.23325237584532418,0.31534981356791536,0.35354667051695415,0.3509814583008008,0.3381958446548253,0.33765359215725493,0.3495934782153857,0.3495750335542357,0.3067505388900417,0.24024632017796715,0.18572769602662176,0.17522524698104594,0.201602421491599,0.22695594903859667,0.24220788987889297,0.23335743068351592,0.21684152306847523,0.19830010796884645,0.14153451605240283,0.11956745050394524,0.13571950057499993,0.16178410484341035,0.19578238992258823,0.20324432807726672,0.17802081292453437,0.15831631742472876,0.1393011187628818,0.14045444678233385,0.17000297520995666,0.19621991499212635,0.21169836356190097,0.202443437118801,0.18641327529099833,0.18507159634378803,0.1858142851188506,0.1863961002126063,0.18630713431981455,0.18597692831304918
0.5513162298395957,0.5198182171478595,0.5012067703798141,0.5053798480227317,0.5049828665069784,0.5065064513440334,0.5127273375866983,0.4912971245040355,0.4303673767452967,0.40072921921808585,0.3971552765692945,0.4066450802877273,0.4002023009851302,0.38335142478534484,0.38324383572911547,0.40112751902275606,0.4246064737974026,0.4353133353800509,0.4553807050405885,0.5090825537900645,0.5428793101470999,0.5555390289362006,0.5335282143970771,0.4088649566732522,0.20854043994131463,0.09838362728450634,0.07428233098579196,0.06744643154350694,0.07961119640871284,0.1039224773352059,0.11185238792446506,0.10181198998239888,0.09490342571285615,0.08740282262012006,0.07400351827832413,0.08223473753795923,0.14517302455135783,0.18830318353972983,0.217145888390639,0.2308105631068076,0.24064830376652135,0.23637603356388462,0.22329840048101796,0.2155649496510352,0.20629900379923236,0.19942808507827176,0.19811879958402695,0.19773867456587685,0.1894733248135012,0.1741781745926068,0.16439516217670302,0.16517116094394063,0.19128214691348133,0.22181649788168323,0.21971610470560443,0.19604863881019008,0.18295697702911745,0.20136145635393513,0.22869399498045292,0.2361231143739392,0.21937122858765268,0.20912085812452066,0.26116611823909863,0.31173007313501677,0.3360662588580894,0.3418141802401059,0.3371991616977955,0.33595342715514814,0.33817391940788744,0.3351319026326906,0.3141154549377569,0.2749629749063292,0.21847703764800216,0.20017846969179337,0.21094049501830708,0.22304683773563092,0.2303944916082597,0.22611274946307786,0.21743739645423954,0.1988384696484998,0.14169827894717596,0.11963494934946564,0.13573740310828272,0.16190464668024712,0.19964113038871825,0.2183833387942952,0.20790204407522048,0.19984177874117165,0.17189708061329,0.15399400304090471,0.17087269722948056,0.19575492574718845,0.20737623705414188,0.1953963829472388,0.1829001560869677,0.18823023927539556,0.2006064677016575,0.20859892131831426,0.20511315571648475,0.19875092058463828
0.5254991872504081,0.5058416014805164,0.5132844610407676,0.5308162374689902,0.5420180803004677,0.5393014685103839,0.5139444190645138,0.4525985832015269,0.4221337707550603,0.4127503591809718,0.3991822655178513,0.38771143837717426,0.3789565710618819,0.384112981547388,0.397709903569906,0.40595956520413684,0.4148067015522055,0.4160095796523907,0.41684176953742247,0.45080592467317815,0.5056690292668679,0.529181666334489,0.463037659446526,0.24529957686092813,0.13372880743466342,0.11578057279453657,0.09945640048798227,0.08088079084021771,0.06502974853769589,0.07048350783939938,0.09031924816723447,0.10204949888344386,0.10212379014087572,0.08113729635519246,0.05918661437431094,0.07816437320971742,0.16706907016601022,0.225234108202929,0.2398579270216354,0.23118392407192861,0.2263102633813319,0.22142321302441012,0.20835613443401707,0.19102080299404514,0.1845238384176451,0.19966633934569894,0.21650481070545505,0.2174725219416871,0.20477460448640158,0.18141053162826978,0.16460118800957638,0.16424561437704727,0.19055786724368184,0.22153111364530645,0.21969666092542064,0.1954224033549155,0.1731107009842719,0.1823905932399275,0.21345313754680678,0.23247355015145138,0.23443512605799563,0.2381920645216285,0.27636959136054307,0.3012956927062789,0.31122426257522773,0.3164918459890287,0.3156446995747159,0.3106039543547209,0.2992763958747809,0.29581766982661106,0.3015009023288019,0.30262150026915396,0.2934013249780939,0.28954139540673324,0.27870081962474613,0.2675578997260352,0.2607953062119141,0.2643773553008624,0.26348943785206325,0.22744879527919754,0.15901290812632488,0.1278223551390567,0.13848287189887293,0.16327615042718852,0.19302577586554587,0.20690869406066298,0.20398898744505706,0.20861088118336193,0.1806783729385322,0.14827008736592828,0.15211489752363955,0.17530270157025643,0.1800409770205237,0.1631979356942832,0.15700953792318972,0.17403318509697593,0.20301941113484445,0.21674808984727117,0.20260075606210354,0.18513319189425653
0.4845636947348441,0.4812917514040793,0.5098497246510748,0.5355824593055554,0.551091258761011,0.541344218814782,0.4980089232462654,0.41958852860863705,0.4030357525805964,0.4066564574780308,0.3897574992366666,0.36593303962496176,0.35330096765306845,0.3669302283122863,0.38588300331381215,0.38823114678451326,0.3887947984156542,0.38884673000507874,0.3890106157003262,0.3967250962042024,0.4198694679968553,0.4535380549909635,0.376441710430241,0.18025386509950073,0.13470813426609785,0.13713384150757732,0.11070544031367469,0.08392545872825868,0.051374335396276116,0.04553884397743757,0.07236573826073228,0.09739130269287644,0.10924530423066525,0.09416465927951839,0.0747309286928135,0.09758774898957823,0.19019579898061872,0.23848686313735298,0.23351577845089283,0.21119063194497054,0.20517712163920376,0.21375526617559765,0.20906614031087936,0.18639222402167854,0.1765283718254883,0.19562192767226336,0.21843823526570716,0.22309289929257448,0.23288408889893877,0.24972618782565337,0.21273571264340807,0.19582114683808835,0.21316335690412427,0.2304174401779806,0.22030206753757847,0.19491864128855121,0.1645743149014952,0.16376195098313961,0.19421602265353352,0.22102892324800882,0.2524362192172105,0.29481963728768795,0.3087220215778255,0.313314373485189,0.3140968319034933,0.3136877587065433,0.3092816803889157,0.30047470987506114,0.28394353671687184,0.27761301037968955,0.2944608038960071,0.33013968176186226,0.3927857833161224,0.410337808030944,0.38474319100523247,0.3596206169390112,0.34449095410548913,0.35233111795641814,0.3475711361338914,0.2805285250253495,0.20806031004317851,0.1787948915728225,0.18869283547076968,0.20285210235660686,0.1935141001048355,0.180898678000328,0.17253606407590336,0.1822087954264852,0.1649721257494011,0.1430067136278693,0.1503629056234413,0.17346039788735454,0.1743810129734919,0.15474970616204858,0.15230559150887296,0.17608780199077695,0.21173624030982952,0.22485037514631095,0.20066876180482585,0.1762967220851336
0.45794052429602006,0.4573582692444109,0.4878600989032057,0.5138179840265964,0.5287011302513651,0.5166421491466308,0.4715547599117136,0.3930952398001973,0.3839280342212649,0.3996268009644758,0.3893620119030413,0.36491005292190026,0.34622929974344624,0.34964174314287555,0.3621351896121825,0.3632657101645793,0.36335013926216864,0.36403621883367826,0.3646231722581123,0.3643821513133487,0.3589314175287141,0.34908532918638174,0.2868188856566253,0.23109944428842288,0.23729167340439986,0.23342056402545208,0.20051970601984906,0.17308573755432344,0.1454026344697592,0.14927387866188263,0.18233918878246522,0.208319007959428,0.2262461446130813,0.22165068914391406,0.1913844076045791,0.15957513192205322,0.20816949667420087,0.2289847815436995,0.21098396215154563,0.1881399031032988,0.19338436944920442,0.2234454756949296,0.23220534243721985,0.21020127599602054,0.18971235713060525,0.1906898753904224,0.21714838576533863,0.2658385317947407,0.33059004630080563,0.4201638396859443,0.32954347911457327,0.24116859961432172,0.2342541021033997,0.23842263682775075,0.2208471309749993,0.19487812130597484,0.16386664817869512,0.16216047352942475,0.19289864882000077,0.22590966153507758,0.2774954310033607,0.3310385342214222,0.33721392892672974,0.3355632843865231,0.3330541736476574,0.33048614833575096,0.3241556057895404,0.31876881951791514,0.30026992818758624,0.28447977303263466,0.29382999161320394,0.3330408612423341,0.4144934892215699,0.4310093925445414,0.3987156016664514,0.3722222831750782,0.35674179957716723,0.36566128218489247,0.37438937565576524,0.35154271031633955,0.3219817399306862,0.3122595885769386,0.3278702622790976,0.32369442550732286,0.25663924540556665,0.2132972335197337,0.1870287742672773,0.16891345984436576,0.15293856024295077,0.15222520438833434,0.17296401531593322,0.19897346280252437,0.20513963022891823,0.18700474623603303,0.18417464109277062,0.20754787760595145,0.24075714026340161,0.25341085785077205,0.2268034322090431,0.20237318753394234
0.44602055348969305,0.45933459764198165,0.48930226247980246,0.5083812523605299,0.5093083050062848,0.46777578180346696,0.4150318295817886,0.3510560881289093,0.36397140342834944,0.40118022091573025,0.40383125450791135,0.38032986330755647,0.3579036543334813,0.3501701740815963,0.3507330386236037,0.345256066162857,0.3452121226384963,0.3551663850266626,0.3640424753602624,0.3639753184195482,0.35328624745232673,0.37218050961042015,0.45669625979378403,0.5004542639067373,0.5250899070882517,0.524547103591649,0.4957880840707354,0.46955250735168974,0.45336266393547575,0.469578384708219,0.49974943334942384,0.5135639046695651,0.5234552187526464,0.52446607768254,0.4579200404555922,0.28082245853849486,0.23484669774325567,0.22720764094048101,0.20622285443107796,0.19048727055160422,0.20000619620315602,0.236157298934048,0.25629918204730007,0.24765537836823606,0.24111133371253773,0.2657098030668574,0.3231781180419568,0.4557165317776254,0.5333157188180331,0.5830432424186216,0.5036796710766062,0.31938397956580244,0.2600107889716356,0.2474860149225584,0.2214614441226878,0.19487812302575802,0.16386814382675216,0.16240068935143362,0.19856849021599968,0.2540256869029577,0.3254300309326952,0.3524954724453598,0.3402321536208313,0.32780645288354887,0.3165964837182932,0.3205718398979514,0.3307851407942372,0.33623292938572286,0.326342578680495,0.30873828334004233,0.3015915120248277,0.32791697902113964,0.4146901329669839,0.43249263603035115,0.4003959412305511,0.3743156636720459,0.3626942575355104,0.3746584044863289,0.38681296671672444,0.3799201559018634,0.36221534027899954,0.358288121463553,0.37895485305769466,0.39375511202053437,0.3779796657333185,0.34800923234706693,0.2950350180275905,0.2093638677295153,0.15722685939720987,0.16438369102480688,0.1973784858785374,0.22842012320407543,0.24852470749066463,0.2324851823873802,0.21853274926174848,0.22848232885581082,0.2424961258851524,0.24431801473755646,0.22937909100559886,0.21726704349796377
0.4671389822484754,0.48061250549384826,0.47487539168918486,0.4720303008092894,0.4511021154046472,0.3628528821340299,0.3061488525909379,0.28416504555266575,0.3339579550316128,0.3973786627752312,0.41305877316073614,0.39127403403785904,0.3755032296151966,0.3721942572191085,0.3661834089353408,0.34976954742220295,0.3452476350858535,0.36399331374910726,0.38301142710615077,0.3845240686608502,0.3839991307092562,0.43436172141246854,0.5484101430230769,0.5957180588504447,0.6197049845583522,0.6322615765054598,0.616221295168955,0.59204606848057,0.5872901512890645,0.6089725925236531,0.6239488272858953,0.6148422221673738,0.6005570098079209,0.5826078518335767,0.48417481472694024,0.2959188139727197,0.24141201279007773,0.23190837782400872,0.2164128709414071,0.21197035652341017,0.21193734280420395,0.226985532012454,0.25015056443408545,0.2796542781766913,0.3562647612571772,0.46971996853604525,0.5247817789480301,0.5882343280854317,0.6249778391618075,0.6335331322739606,0.5683850194557221,0.382174065869228,0.27976478532548116,0.24929799646310044,0.22153052487589076,0.19488806870762349,0.16389267503441154,0.1632959821754393,0.2133662801226924,0.2980813237946729,0.35530825308468056,0.355233104000608,0.32228912341516636,0.29447821876739555,0.2744579360266695,0.28450754446987225,0.31341205522721083,0.3323383542758904,0.3389691400367175,0.32206020636383703,0.29835418163841076,0.32158221252986724,0.4123719840351126,0.44124458560427404,0.4193781099946847,0.39477832701613763,0.3900417424795875,0.40688526983677986,0.4130716435483829,0.39594977976993767,0.3670352696647814,0.3584094396571791,0.38141729220910764,0.4071356357467575,0.42809316641161477,0.4178831603554357,0.376204165591871,0.3022087068754531,0.19768202423409306,0.18088649805902518,0.21490339951195386,0.24359171886076886,0.2648415569033127,0.2502076927235478,0.22062434183937055,0.2074151157398143,0.19651726625526,0.20035741220992767,0.21610091072971452,0.22679691970773388
0.44967496760480646,0.4320262306784165,0.3586702657825107,0.3309543865577376,0.3312456735267512,0.30676782030428623,0.2786456790613127,0.25957165870667576,0.2889801624678009,0.36085614642659597,0.3935035739756867,0.3773337058137425,0.3733649696795367,0.3866199875439496,0.38515056653765095,0.36260826869753254,0.35035825653818503,0.3650590686395492,0.38449274019570845,0.38800374795005477,0.42268863154798864,0.5347435384061794,0.5994992431179655,0.6136825340484338,0.6325844395196536,0.6482975041383379,0.6370284503215424,0.6137396817916505,0.6131948893779389,0.6334347253554933,0.6365681680115225,0.6134837614804088,0.5796731046796673,0.5073277027345136,0.3289166042609419,0.2345858965816085,0.23062630601612122,0.22536870621621682,0.21232255118582444,0.21165646346037106,0.20216531237623422,0.21253919366372,0.2766562790772032,0.361691137929777,0.5019895803093462,0.5706624894870372,0.5869139916570565,0.6122350732632986,0.6291811662752007,0.6209012986772767,0.5867874288159249,0.49350184196932434,0.3472856984740295,0.2599260196920238,0.22326798006537346,0.19648228934938036,0.16570194253806492,0.16979054932177412,0.23257079921638027,0.3165836783071694,0.3619595969606685,0.3564516814146874,0.3163086165854384,0.2847458455556069,0.2564348847493586,0.2604286737730903,0.29343047488737384,0.31703485239351187,0.32329537053130053,0.2992077640096333,0.27598951032815267,0.29595116568381596,0.37861224280883304,0.427612270718388,0.4199737039413304,0.39672129188821664,0.3960676057532157,0.4157945020392264,0.4182436747744407,0.39455672337559117,0.36106008424309144,0.35412181962463923,0.3810289936895868,0.40816083113657514,0.43849681029386206,0.439275850634503,0.40675457641570223,0.3433800946707995,0.21537383088528803,0.17970131100073303,0.2088837566950067,0.2362271442230945,0.2637881148962375,0.259445375627824,0.22620903926202882,0.19960105578613188,0.17248724605588442,0.17588685482867672,0.20810903385842378,0.2324348550763316
0.32191665783156664,0.30025979055207525,0.26479689629355146,0.2554342091647366,0.2731907108310579,0.2883577195617933,0.2771498151988562,0.25415882963623815,0.25648464479945093,0.3013286035426232,0.3541657060369682,0.3511937481849039,0.35538258940115885,0.38144201743372375,0.38747966980589343,0.36507002248314274,0.346700203259262,0.3503894416883315,0.36320401555860243,0.3673030706890689,0.42323279024879934,0.5743573040241856,0.6325995614178626,0.6372390719003942,0.650224238200583,0.6561898781254614,0.6390657676651801,0.6153402781381929,0.6144416695728625,0.6336550651667946,0.6357039029417781,0.6111436842880746,0.5585212644208426,0.4365186062481127,0.2580958403277215,0.21272605481576848,0.22209299054684492,0.20904370102954895,0.19036163947985454,0.18756536208918315,0.17766541457140722,0.23340600252864335,0.4199645418853396,0.5209572458957861,0.5701141830108647,0.5687284748342284,0.5676531670983352,0.5898626796956093,0.6048135921244906,0.5953699672017825,0.5777071873521743,0.5560377632818266,0.47354752133700295,0.3238433642665351,0.25924104183311936,0.23198970797801588,0.2021823402310461,0.21252587675262907,0.2796374645784256,0.32868335051201675,0.36029918158279584,0.36414361377331356,0.33530597624978603,0.3077597261703646,0.27421156789914314,0.26675270083066965,0.29075744101630885,0.3049901582061514,0.29777329609097897,0.2717471246858229,0.25001073156700554,0.2560576752094902,0.3096914062018451,0.3872939375956209,0.39579346661826925,0.3740423109655504,0.3741139067604865,0.3937808318331565,0.3955176022404532,0.3716597659781302,0.343976662893566,0.3478479070856894,0.380913217206272,0.40788428394940746,0.43854318318390195,0.4409132587055178,0.4099778096170258,0.34744685010412407,0.21821114690476923,0.18058258083411965,0.2082186589873729,0.23501528855113513,0.26805098980792474,0.2750066824313455,0.24879719135429332,0.2221769801608945,0.18840551807430636,0.1805877937271918,0.20685535504368197,0.2318939311697806
0.2636573490547769,0.23081553367709343,0.21819101985833236,0.22496499771701256,0.2552344813983821,0.2833400251586339,0.27692157885025537,0.2530358258747737,0.2388333930672016,0.2546815584964672,0.30265595413356244,0.3179679823873433,0.33875124180397354,0.3810757729769038,0.39919486613078126,0.38327088402208126,0.36507417686090465,0.3595766556988716,0.36413127425959874,0.3672271613751105,0.4196803981117122,0.5687905171622708,0.6295885154592433,0.6399424581727804,0.6569014285763426,0.6606564088061179,0.639495234031948,0.6148595666780794,0.6062800986960257,0.6157920832388615,0.6170983451297316,0.5955743372283067,0.5016069580775137,0.2920873313907115,0.19399391417905648,0.1916372378952651,0.2079070272154142,0.20698503739696986,0.19309494375778277,0.1849515864383557,0.1820082893759598,0.2772388142311568,0.48074594615614175,0.5684969090217453,0.5820268220865582,0.5686435464419861,0.5590258438984652,0.5686036378364059,0.5718220383108396,0.5600234745550249,0.5473621266111669,0.5351625042551953,0.4867298371405409,0.39296165085396134,0.36069901523982084,0.3476127836052644,0.32898954854567136,0.3248100990441195,0.33941269735616586,0.34956618268803935,0.36285242083075103,0.3693491866337668,0.3578336609647706,0.34407795474888625,0.3145387401690241,0.29319935241567335,0.2958172894775137,0.30030970618428643,0.29768776024675964,0.27380558320182546,0.2500291331844055,0.24966274481173478,0.281459318725512,0.35693609484130123,0.37381830868198646,0.3644123128414519,0.3723898344883474,0.3874724759056891,0.38103629930761707,0.357074008722576,0.340884165306362,0.35709988607910526,0.3872709347203101,0.40207920356539145,0.4248005012161556,0.43600623041820114,0.4210019917696936,0.3662097107865087,0.2448172297625575,0.20336821717795725,0.21562617670948384,0.22892682258797445,0.2501214368536795,0.26310559048202886,0.25631050302532565,0.24285111858394992,0.2093811361387099,0.18310827149895081,0.19280624224689852,0.21684318019894014
0.23445419990453015,0.20515035600289971,0.20979789925512343,0.22906614774874284,0.26665648142322773,0.29111851884868994,0.2776748778645356,0.2525024139286307,0.23035657460091502,0.2279054262844924,0.25477232494922764,0.29552635698001695,0.33986595599243985,0.38450400360823683,0.4054197835255595,0.4001441060290617,0.3913370645980998,0.3860090888481303,0.38584890803358585,0.3873361997264432,0.4228394311009225,0.5484905929092028,0.6045011644657924,0.6253531427704396,0.654277698100786,0.6629023654654349,0.639871655245098,0.6142208991840208,0.5961805952980841,0.5961235365513728,0.6000490697931595,0.5718709624482143,0.44272721268091286,0.2339751865320638,0.17138582583904832,0.1761092433431762,0.20054546165828266,0.22224498825571465,0.21762275358832495,0.20177082918521555,0.2325223566390758,0.4085800959846384,0.5379665042792108,0.5839753529302609,0.6071080533324542,0.6026765013645288,0.5804035157184096,0.5677469773485984,0.5542808866375848,0.5459577699059456,0.5438900149271854,0.5088791396004193,0.4125013995693629,0.3774269309886764,0.39147069451415295,0.4026974386342671,0.40501495158231887,0.3962564701058727,0.3873240453630561,0.38152179188780583,0.3586953188466063,0.3438220960533998,0.34655139697967596,0.3551938587714279,0.3396889363291321,0.30538749491350914,0.28762278601827085,0.2992522331605017,0.30800593218367295,0.2907883429296726,0.26976921174289936,0.268180852329312,0.28289027278386214,0.3439390963708102,0.37133285358891616,0.3840921002012748,0.40619093429816155,0.4130911154133524,0.3920669300749625,0.3674493743374671,0.36269345714596163,0.38437589838055025,0.3993521346047248,0.391498272706541,0.3958027270663645,0.4150169960097112,0.4235457947221312,0.3821513659244953,0.2796132561736147,0.23910597792830557,0.22850599757621692,0.21758671864552545,0.20856826160860814,0.2157466037466849,0.2335758192732657,0.2435623450472678,0.22395987420228372,0.18906512989548097,0.1839091522887076,0.2067657185986365
0.2188439144089545,0.2099735839560355,0.2353373332217063,0.2621549351408805,0.29642940296677006,0.3047867847874488,0.2787385268404807,0.2525883520344214,0.23363618409969625,0.23693029820434475,0.2553654714348076,0.2846901601887439,0.3425042151595861,0.3957772466166807,0.41372311300540304,0.4142959302122776,0.4136246786977169,0.413080506172311,0.4129588556394642,0.41371006901341606,0.4388803846824494,0.5452920507785355,0.5993906685615725,0.6267446692654315,0.6602661737450263,0.667204509516033,0.6402971966460074,0.6141042320325698,0.5955290405629509,0.5990444443736825,0.6082954998921875,0.5395872254000896,0.3292695309751397,0.20812629212383602,0.18658892229326246,0.18757004978965738,0.20881792288134665,0.2300950033858145,0.2225926926139743,0.20134616130453586,0.24720096149995166,0.4614565109410226,0.5697986838947781,0.6014130287005244,0.631927147485843,0.6332528217032278,0.6035010738566244,0.5779261261612912,0.5596426062307269,0.5626133386955495,0.5722632752637581,0.5277771474224191,0.39696812921188374,0.3536136144478534,0.37205189037882164,0.39623211393400126,0.4110734842660649,0.4020126580871195,0.38621009938499234,0.38061646497772383,0.3510238728996154,0.3143295309602319,0.31219919984279904,0.32866035042379194,0.316175282307011,0.27585157649371045,0.2621769132742941,0.2824531929806967,0.2975621123137415,0.2877444385788697,0.271093229043866,0.2691357404111949,0.2736903318124953,0.32510058932123226,0.3741090918922928,0.4058716772404357,0.43664826221017095,0.43870160685140286,0.4090295995207534,0.38389109158870505,0.3833465823763586,0.4035872028691667,0.40672097686877606,0.38495958941866104,0.3732601380948421,0.38774581354399235,0.40030844621718026,0.36080897985080485,0.28722708873236147,0.2568338555404454,0.23596492141266429,0.21074063781180455,0.18123668026895107,0.18028929466603202,0.20988083337260047,0.23395337893513093,0.23021210714128862,0.20414603932646166,0.19862294181135545,0.2212641855969752
0.22497631742504492,0.2289960665896262,0.26213927495178835,0.28926778866794955,0.316855834265026,0.31286030544784915,0.27929059629397013,0.25293248038641997,0.24068378349065278,0.2567280791346675,0.28792092579811684,0.32373035803707817,0.3681880503925756,0.43860816442174555,0.45955825711453424,0.46001377131651316,0.4594947750691705,0.45906546963494355,0.45896403963149407,0.45940164883384027,0.4768201689097641,0.5550175706924504,0.6169109731994129,0.6491045978317009,0.6771386460330977,0.6742357531201646,0.64176761492041,0.6157660609379138,0.6026678750865673,0.6161525658251032,0.6303364340320782,0.5442213837060936,0.30413907399136253,0.21523928199548464,0.20960044541043688,0.2099665628707842,0.21944845749882108,0.22063821091202146,0.20152838843646736,0.18003527304369016,0.23266145953001482,0.45843771515323495,0.5708615187487815,0.6014924131166234,0.6319585846742868,0.6341861896807885,0.6051104857470642,0.5796765368413216,0.5667578212368836,0.5790068167287893,0.5852345981167754,0.5254873666382074,0.39842722791410606,0.3418800225442568,0.34797244405128863,0.3720962279110927,0.3880064044300072,0.3790558933332229,0.3626215309567082,0.3591679842681807,0.34014629530621054,0.31375204328389306,0.29865195804382405,0.29451450552487196,0.27165703718981365,0.23969814638940182,0.2341696502880354,0.25615271686487806,0.2719204559228677,0.2637846611520403,0.248155679424851,0.2454884582311562,0.24004429773655225,0.27269903446263605,0.35497364245220575,0.4045626426667803,0.43763416881347583,0.44009122326719663,0.41039606102077775,0.38526686584076564,0.3850258634793851,0.405479534535766,0.4082130981035539,0.38488799241920574,0.3646279539283165,0.3668118575357691,0.3616312534486166,0.3075526671979495,0.2791397350212652,0.26403206373462834,0.2389241487743245,0.211168275403381,0.1804579255195932,0.17892099297037659,0.20905530345410886,0.23437637398523475,0.23786613795470501,0.22338266155161798,0.22419713883136358,0.24692120135742235
0.2507353661849822,0.2667666195228423,0.29659958614853277,0.3168922884657706,0.33292552067783726,0.3173512807960949,0.279471666394254,0.2536356132600738,0.25376107652488966,0.2979146540719068,0.37768734584165825,0.45984211476891473,0.4806552796910952,0.4830000561975367,0.4741835211002779,0.46694176433866763,0.45864194679741926,0.453528544788409,0.45328483730804303,0.4540647519922138,0.4711831382943348,0.5345235482530513,0.6226701162517172,0.6575011734081859,0.6747518023667151,0.6738072701578137,0.6530955740821168,0.6338692000685566,0.6208158689258843,0.6283585707621457,0.6247280947213405,0.5117076755321308,0.3060703881544527,0.2292877019125151,0.21344738351057926,0.20636305492232412,0.2042682988837088,0.20246357976344473,0.1946069214759439,0.18630325431861144,0.2506839296648959,0.4702762638886164,0.5631784459215103,0.579874890543172,0.5985413617541638,0.6068323591581253,0.5964753371527522,0.5822534350909946,0.5718833034185061,0.5610820580755023,0.5118206961142765,0.44031910914146644,0.37452753344072215,0.3342584630653288,0.3333520112816287,0.35703206587943453,0.3767994022264804,0.37057442924740747,0.3506146777426195,0.3412246826688131,0.3214679070879351,0.30907957122865193,0.30109105873547126,0.2693856473131059,0.2493851785027928,0.2244864769877725,0.2100681502642573,0.22003192298629465,0.235581971712982,0.24173169010162543,0.23496452414676977,0.22751643064458327,0.2208589820492441,0.2540082759967451,0.3326616435488281,0.37976901798385837,0.4143928619853097,0.42620038268790855,0.4048154916944411,0.380386242723043,0.3810259079978012,0.407715557153696,0.41675675621234637,0.3853219534419584,0.3268410791628549,0.3064661678893803,0.3024482289425516,0.2815513381902558,0.27960987423370054,0.2746460402060781,0.24886638417088827,0.2270338621171883,0.20118357368661224,0.19952166937850094,0.22527068420055824,0.25040035057267856,0.2615427333510679,0.25710764555270904,0.2597513745084241,0.27662337676543325
0.28269549145248785,0.29584728314426795,0.3050504131510581,0.31275366081741707,0.3214919379826031,0.3095699198827947,0.27874541991691126,0.2550954646985658,0.27386769592263427,0.3666557317110995,0.4809489072268306,0.5213348105108282,0.5173212655855645,0.5052597348830578,0.4903025304780416,0.47237801759479536,0.45444517722317485,0.44872291078755167,0.45292639812397933,0.4549119335642081,0.4780997886318994,0.5320308683768625,0.6047654782639615,0.6312437190462588,0.6382173604571242,0.6500458366347714,0.6556690641527173,0.6486764078905278,0.6308275225451025,0.6173250898843401,0.5581687361932015,0.36825097909113585,0.26341324052378556,0.2303699249106747,0.20041307862060098,0.1808075769141043,0.16771250202206023,0.17819344534424192,0.2010952864108652,0.21708343431550078,0.3018537582089773,0.5093254393250461,0.5667415955267593,0.55826899205237,0.5508888582990608,0.5595699851535282,0.5633541559633685,0.53010719086171,0.5055678762588196,0.4451424196674889,0.33280754101529136,0.3364955801002287,0.35550404314939915,0.34214923445966894,0.3430052225108323,0.3670222542357791,0.3936743317439879,0.39231313451078786,0.36604568025830225,0.34561279751410007,0.3190546619307506,0.31352393184923255,0.3155327482415579,0.2767016612371347,0.2687403661283499,0.2508759256415764,0.22118515106502454,0.20948432535735306,0.22038695647266757,0.2442832086277364,0.24865569852244096,0.23298667025867517,0.23406909389669123,0.2889453677742838,0.3352152746741723,0.3534164468795492,0.38114330680940445,0.4016556479649891,0.3904096094088547,0.3666343302283683,0.3634860653769918,0.3802662627060778,0.36265000914555384,0.3040216448108047,0.1829176665908208,0.1388421641038495,0.1689539041461657,0.25770358948477434,0.28066329392847333,0.2703454589600611,0.26636125252771203,0.2664777858317297,0.2450220871818416,0.23303008692052396,0.24048621109085283,0.26313548692869504,0.27943957180001466,0.2844020690241833,0.3025192093519881,0.3166643229570546
0.29360663427856815,0.29111170603779213,0.27964703275707614,0.2796647301788769,0.2917192824468816,0.2959289681289627,0.2786235265057214,0.26747120484211173,0.326155748412882,0.44828288796045257,0.5104424069011764,0.5016716995496143,0.4983011983536016,0.5107121356322083,0.5085212913313237,0.4855902706895082,0.46702192856815705,0.4701951904490317,0.4826392221229916,0.48536177386070867,0.5043280654988792,0.528255613994898,0.5497873842807499,0.5788450024576852,0.5970430227887447,0.6178279861884588,0.6367788776134429,0.6369733376077735,0.6179718165598413,0.5804105605948919,0.47111642629167655,0.28774621855495536,0.24383299916463738,0.23572002143651422,0.20245998072986163,0.17557927205112822,0.15094998313930877,0.1595675839881699,0.19516650578959463,0.22554124607276496,0.3299399744294699,0.5433052811621889,0.5860006716021997,0.5615299875216966,0.5188678704736723,0.47676251749201565,0.4493561721516237,0.35048963301354674,0.30291121327299897,0.2607807731980643,0.21885616588868112,0.2605602010897338,0.32722758250003114,0.350204427576617,0.3588377146708209,0.38336757179672476,0.4141029082647266,0.41562495513704667,0.38561823650148763,0.3586346831059738,0.32790163086533786,0.3249269955105414,0.33161128592474354,0.2940197435383839,0.2974132435271091,0.2916571932879936,0.2583990730172815,0.23399976326969518,0.23707381957054327,0.26223521477528855,0.26782625830095086,0.25132934353453096,0.2650270006548977,0.3243777778654875,0.356584185196944,0.3609921953229061,0.3798159023279842,0.39623358890323734,0.3853501807132344,0.35993833253952234,0.3316483928183013,0.2738414808793823,0.1760497278614815,0.12496740794401301,0.08231479651214219,0.06985046211814883,0.11648087565238974,0.24396963538957225,0.27269370979039703,0.25925680355193687,0.26928872614520344,0.28915882100488366,0.2848128392514115,0.2618141305246531,0.2512211403178546,0.28687658250387094,0.3105658549899155,0.32786176424550023,0.38322447744401206,0.40720648706290163
0.287789432544979,0.2728445320303879,0.25307999994662633,0.25237897821225097,0.27080468352507747,0.2886575791369737,0.2913540439908598,0.3244645963151915,0.41682272576597373,0.4861340249915558,0.4971927320565802,0.47692932937695753,0.4800083507104363,0.5053655130479543,0.5108367933228339,0.48866147606519117,0.4758691517904128,0.4899756623699988,0.5093718668713892,0.5126233774563819,0.5252784577705644,0.5311944406938729,0.5204952889698382,0.525759978317974,0.5590418901739085,0.5926041740443742,0.6110766365633044,0.6114166771533689,0.5949558640975521,0.5184983302813405,0.327504216111037,0.23296746691271622,0.2447860402650981,0.2518207693369291,0.22605200093100639,0.19930742851343997,0.16254953582094117,0.1490418583342399,0.17159915840873874,0.2022054475170295,0.318439604234072,0.5372127213703439,0.549800341098739,0.5084992582219839,0.4294130558264303,0.29862853190470384,0.26529605585227967,0.24415433667613634,0.23146864808767764,0.21535620519069326,0.21492234157930346,0.24476238867938127,0.28638400359469457,0.33806854494845484,0.35865342035567177,0.383558751989906,0.4146790939878189,0.41708459348728033,0.3873891751885074,0.3600237740471686,0.3291331135062463,0.3262967838776264,0.33714653433275915,0.3077720079304475,0.3086414473965219,0.3102340673409081,0.2841200348035334,0.2597887974500383,0.2570471919183789,0.27185010497764256,0.27200191239643645,0.2683895017483106,0.3110797975391117,0.35653151042735365,0.38075020926859937,0.3835179100041905,0.3960809025126514,0.4020606236078607,0.3835259228202732,0.3430399084829052,0.24845268534902723,0.12010185837288836,0.05661850539173968,0.04211320553170028,0.040660779183851525,0.05250788813913987,0.11759223205239966,0.2308653728092564,0.2563421333986434,0.2520393889988428,0.268939152808996,0.2923874340531204,0.2901676091666595,0.26437107396909143,0.27721871961759376,0.3670945609685268,0.40880656249275865,0.41067097305393435,0.42047963578904796,0.4282694940302109
